# .PCD v0.7 - Point Cloud Data file format
VERSION 0.7
FIELDS x y z
SIZE 4 4 4
TYPE F F F
COUNT 1 1 1
WIDTH 1000
HEIGHT 1
VIEWPOINT 0 0 0 1 0 0 0
POINTS 1000
DATA ascii
0.01606785 -0.01864535 -0.00922835
-0.01471402 -0.06811835 0.00454182
-0.03625773 0.01296569 -0.00922835
0.05169797 -0.02513281 -0.00301531
-0.05712241 0.02218168 -0.00100629
-0.01716788 0.03324658 -0.00422835
0.01577923 0.06183672 0.00112911
-0.02782903 -0.02305360 -0.00422836
-0.03875796 0.07233474 0.00044440
0.00637016 -0.07061901 0.00488941
-0.01779319 -0.00593646 -0.00422835
-0.04397964 0.05963947 0.00540637
0.05533329 0.05932062 0.00052059
-0.06526443 -0.04402174 0.00558484
-0.06623476 0.00962450 -0.00259089
-0.04414851 0.02329856 -0.00906167
0.08127713 0.03242366 0.00358399
0.03003839 0.05708967 -0.00502116
-0.00305476 -0.01710428 -0.00922835
-0.02519148 0.07646364 0.00054474
0.05524157 0.01458460 -0.00824638
-0.06176918 0.01079837 -0.00607756
-0.01275680 -0.03041180 -0.00922835
0.00965520 0.00528165 -0.00922835
0.07463121 -0.04486990 0.00433501
0.05807562 0.04883480 0.00552592
-0.02997598 -0.04457645 -0.00371343
0.05943464 -0.03876166 -0.00035089
-0.02279217 0.02331295 -0.00422835
-0.01357950 -0.05538681 -0.00309538
0.01683240 0.08073588 0.00042778
-0.02891631 0.03231126 -0.00422835
0.03449078 -0.07892534 0.00498961
-0.02827730 -0.00194852 -0.00922835
0.07540453 0.00486352 0.00550141
-0.07926781 0.02695570 0.00033330
0.02086576 -0.06165672 -0.00443080
0.08206726 -0.01962199 0.00031617
-0.02070405 -0.03143785 -0.00922835
0.02188362 0.00937711 -0.00422835
0.00393935 0.02853573 -0.00422835
-0.00808683 0.03213382 -0.00922834
-0.03677072 0.00728707 -0.00922835
0.00019685 0.04759677 -0.00918433
-0.06438427 0.05476267 0.00028597
-0.03414013 0.05051513 -0.00128768
0.02185612 0.00337504 -0.00922835
-0.01252365 0.06383711 -0.00442512
-0.05796949 0.03297152 0.00333940
0.03636585 -0.05218072 0.00094023
-0.00750575 -0.00936924 -0.00922835
0.03526816 0.06413727 0.00023220
0.02774712 -0.06659990 -0.00000386
-0.01002850 -0.06517114 0.00282949
-0.01841599 0.03564266 -0.00922834
-0.02257161 0.01597443 -0.00422835
-0.01634404 0.02171047 -0.00422835
-0.01664879 -0.05509075 -0.00291531
-0.05155413 0.00421786 -0.00893934
-0.04564665 0.01375787 -0.00917920
-0.05268760 -0.01549682 -0.00855823
0.06714369 -0.02442047 0.00495287
0.02772310 0.04279891 -0.00900898
-0.00632949 -0.02013266 -0.00922835
-0.04933316 0.02588072 -0.00844724
-0.05309487 0.03840458 0.00262928
-0.00282955 -0.01241786 -0.00422836
0.03049398 -0.01706195 -0.00422836
-0.06710033 -0.05585800 0.00302075
-0.00043307 -0.03740159 -0.00422836
-0.02529438 -0.07730145 0.00551044
0.03966538 0.02446539 -0.00418773
-0.03107423 -0.00661039 -0.00422835
0.01968233 -0.00148080 -0.00922835
-0.01476387 0.03442538 -0.00422835
-0.05098373 -0.01241582 -0.00383200
0.07862977 -0.02729719 0.00540322
-0.00068282 0.04966745 -0.00409563
0.07437178 0.04535542 0.00435160
-0.01136530 -0.07156102 0.00517941
-0.02633217 0.00665967 -0.00422835
-0.06550803 0.05705694 0.00419557
0.03057497 -0.00421257 -0.00422835
-0.07935311 -0.01344312 0.00555758
0.04916794 0.02186530 -0.00877216
-0.00750577 0.00189584 -0.00422835
-0.03768150 -0.07109058 0.00556351
-0.03311615 0.07383767 0.00051704
0.03035380 -0.07037347 0.00057264
0.00904658 0.07101512 -0.00013889
-0.00023906 -0.07178240 -0.00007869
-0.05406675 -0.02083486 -0.00795864
0.00894909 0.05974989 -0.00178445
0.05341743 0.06510153 0.00533385
0.03953596 -0.05255078 0.00260774
0.04491079 -0.04106249 -0.00714018
0.02329651 0.03028110 -0.00922834
0.07671896 -0.04181643 0.00379587
-0.05749077 -0.06157908 0.00030453
0.04378272 -0.00155841 -0.00922835
-0.03240574 0.01338623 -0.00922835
-0.00235857 0.05649312 -0.00834949
0.02532988 -0.00191306 -0.00922835
-0.00685237 0.08401774 0.00532174
0.06456998 0.04338597 0.00558631
0.08668777 -0.00457400 0.00090149
0.00185155 -0.01874457 -0.00922835
0.06280146 0.05652461 0.00030768
0.07496589 0.01367227 0.00555040
0.03038608 0.01660127 -0.00422835
0.08052241 0.01079014 0.00553313
0.04660823 0.02844891 -0.00363437
0.01589419 -0.08586481 0.00354317
0.06618851 -0.01086226 0.00337460
-0.01266766 -0.03987254 -0.00922835
0.06865815 0.02729628 0.00030853
0.02706691 0.00294019 -0.00422835
0.02123632 -0.05174044 -0.00844754
0.08720042 0.00051212 0.00416899
0.03237933 -0.06702272 0.00542090
0.08050609 -0.02199649 0.00538781
0.01954880 -0.04354712 -0.00918181
-0.02612592 0.07637146 0.00555288
0.01294082 0.00633793 -0.00922835
0.02427635 -0.01949581 -0.00922835
-0.08603927 -0.01358985 0.00359748
-0.01127824 0.06696828 -0.00188908
-0.06435728 -0.03828099 0.00547628
-0.04285446 -0.02135630 -0.00414001
-0.01680015 -0.06563531 0.00381658
-0.02143556 0.05708140 -0.00130635
0.02933099 0.04958566 -0.00811775
0.03017251 0.05854112 0.00267535
0.02167531 0.01406248 -0.00422835
-0.04467965 -0.06377905 0.00558588
-0.06268550 0.00030602 0.00033502
-0.00292605 -0.07189409 0.00508730
-0.05521219 -0.03411916 -0.00440263
0.00138404 -0.01133898 -0.00422835
0.06872639 -0.05353546 0.00133795
0.04343777 0.03869070 -0.00798652
-0.02171771 -0.02744401 -0.00922835
-0.02627294 0.07738787 0.00046755
0.08307483 0.02719766 0.00384413
0.07873995 0.03735864 0.00131120
-0.03968348 0.00714046 -0.00422835
-0.00417456 0.05262579 -0.00382224
0.02015470 0.06115110 0.00160088
-0.04665091 -0.05311588 -0.00033345
-0.01507666 0.05713933 -0.00241134
0.05119472 -0.06505318 0.00542559
-0.03353453 0.00083814 -0.00422835
0.03248606 0.05453856 0.00080402
-0.07342659 -0.01101933 0.00038713
-0.00211223 -0.03668570 -0.00922835
-0.06831528 -0.01243240 -0.00083629
0.03484683 -0.07195675 0.00058809
-0.01819313 -0.08306930 0.00526563
-0.02161679 0.01182353 -0.00422835
0.02546428 0.03538434 -0.00422835
-0.03890683 0.05515773 -0.00217159
0.04395110 0.03057667 -0.00881164
0.00498842 -0.06440835 -0.00487353
0.04744640 -0.03942544 -0.00679161
0.01789276 -0.05525059 -0.00797927
-0.00127257 -0.03324964 -0.00422836
-0.04088040 -0.01817680 -0.00422836
0.05988580 0.00848930 -0.00182239
-0.04299064 0.02281292 -0.00914595
0.02292525 0.00310823 -0.00422835
0.06182991 0.01855332 -0.00506684
0.01161495 -0.02384800 -0.00922835
-0.05399411 0.03219430 0.00048129
0.07782044 -0.01200118 0.00558519
-0.04390495 -0.04114858 -0.00180382
0.00403634 -0.07989199 0.00558350
-0.02978518 -0.00743592 -0.00922835
0.01793797 0.06070816 -0.00588395
-0.06160014 -0.00722803 -0.00643440
-0.01995474 -0.08021316 0.00542399
0.02278254 0.00217031 -0.00922835
0.02664222 0.02169653 -0.00922834
0.03683800 -0.02090277 -0.00922835
-0.08000921 -0.01705840 0.00547223
0.03013833 0.06613825 0.00011139
-0.00400122 0.07503536 0.00046280
-0.06432518 0.02712416 0.00461142
0.04583866 -0.07354045 0.00088546
-0.06076058 -0.02356948 0.00240291
0.02345673 -0.05460090 -0.00227968
-0.04018500 0.05461783 0.00385745
-0.06603232 -0.05654503 0.00405576
-0.00317926 0.07730086 0.00057954
-0.02435091 -0.04532851 -0.00896094
-0.04824364 -0.01830667 -0.00894715
-0.00693776 -0.00766934 -0.00422835
0.04849226 0.07079689 0.00038309
0.08602569 -0.00518540 0.00050310
-0.03196606 -0.01974620 -0.00422836
0.04017892 0.05120916 -0.00455167
0.00222242 0.04060023 -0.00422835
-0.06823269 0.01487267 -0.00068587
-0.08279630 0.02755323 0.00319971
0.02137566 -0.01543751 -0.00922835
-0.03135136 0.05963380 0.00363723
0.08264642 -0.02572914 0.00073232
0.00463203 0.03080325 -0.00922834
0.01455320 0.02537364 -0.00922834
-0.04360193 -0.06771763 0.00053614
-0.03081397 -0.02790522 -0.00922835
-0.01157014 0.02650583 -0.00422835
0.06845413 0.01813649 0.00480088
0.04329799 0.01177871 -0.00922835
0.03408028 0.07279108 0.00558322
0.04574086 0.07462190 0.00321678
0.04053203 0.04260917 -0.00258273
-0.03707337 -0.01186495 -0.00422836
-0.02603877 -0.06011107 -0.00391265
0.01680102 -0.03611569 -0.00922835
-0.05425039 0.02735279 -0.00137882
-0.05708421 0.03196019 -0.00396154
-0.01008907 -0.05524941 -0.00327817
-0.03077481 0.03110501 -0.00922834
0.05653018 0.00389786 -0.00322945
-0.01815635 -0.05883398 -0.00675399
-0.07459990 -0.03494124 0.00041851
-0.02280168 -0.07589907 0.00558427
-0.02710050 -0.04684906 -0.00868584
-0.00257769 0.00658138 -0.00422835
-0.00588546 -0.05559072 -0.00843502
-0.03350527 -0.06557384 0.00536916
-0.06944455 -0.01047214 -0.00052600
-0.00267631 0.05897763 -0.00773597
0.01209404 0.07062416 -0.00012783
0.00894577 0.02244516 -0.00922834
-0.02844158 0.05144443 -0.00251894
0.03001647 0.07514349 0.00554787
-0.07758658 0.00119628 0.00058345
-0.03275075 0.07952927 0.00500530
0.07761153 -0.00859172 0.00558603
-0.04901231 0.04574437 -0.00256234
0.05918513 0.02342833 0.00089210
0.05517858 -0.05220657 0.00553906
-0.01250680 -0.01958802 -0.00922835
-0.08640650 0.01205551 0.00261658
0.01330053 0.07155437 0.00522054
0.02959572 0.06478586 -0.00024026
0.04547580 0.01706655 -0.00917003
0.00031937 0.02237821 -0.00922834
-0.01829556 -0.04292258 -0.00919755
0.03848609 0.00553910 -0.00422835
0.06886808 0.04594296 0.00041631
-0.04944907 0.01604710 -0.00892212
-0.00951304 -0.06149216 -0.00021186
-0.08617473 -0.00134583 0.00072663
-0.04196607 0.02551682 -0.00911685
-0.05427024 0.02350324 -0.00231146
0.01314654 -0.04756935 -0.00410416
0.00460251 0.01138753 -0.00922835
0.02389904 0.06617033 -0.00057619
0.02399633 0.07091693 0.00042679
-0.01995902 -0.00842973 -0.00422835
-0.03605210 -0.03941998 -0.00878267
0.01169118 0.07019949 -0.00024666
0.03163301 -0.01832134 -0.00422836
-0.06987806 -0.04676687 0.00031233
0.07797891 0.01778581 0.00558375
0.04191555 0.01930340 -0.00420019
0.04191552 -0.04646467 -0.00003781
0.02242907 -0.00831739 -0.00422835
-0.04715136 -0.05823997 0.00045655
0.03464599 0.06567449 0.00540055
-0.02047499 -0.05505082 -0.00778424
-0.08567465 0.01021986 0.00476520
-0.00504382 -0.07968558 0.00558361
0.03756340 -0.07292485 0.00547210
0.00688038 -0.08609638 0.00484187
-0.01060272 0.01969376 -0.00422835
0.00963776 -0.00947274 -0.00422835
0.05137235 0.05999002 0.00059315
-0.04467372 -0.07222618 0.00526954
-0.03206168 0.07104756 0.00558586
-0.07309370 -0.03204001 0.00558349
0.05020427 0.05930672 0.00058144
-0.03064179 0.04115323 -0.00897261
-0.01531861 0.04756671 -0.00408535
0.08278722 0.01890659 0.00028513
-0.03927159 0.01764344 -0.00422835
0.04874924 0.04289795 0.00199385
-0.04119325 -0.05685649 -0.00053837
-0.01347969 0.02860628 -0.00922834
-0.01730870 -0.05908099 -0.00078597
-0.05991893 -0.01307585 -0.00092250
-0.03450679 0.01658937 -0.00922835
0.08280862 -0.00965094 0.00038093
-0.06358606 -0.05622612 0.00527044
0.03529016 -0.02295082 -0.00922835
-0.02123229 0.03060889 -0.00422835
-0.05475078 -0.00137415 -0.00352392
-0.03365586 -0.05840016 -0.00224918
0.05477889 -0.02199507 -0.00251697
0.05351811 0.02064777 -0.00819659
0.06169622 -0.03382616 0.00468190
0.07796266 -0.03774215 0.00078626
0.05283673 0.06043658 0.00558340
0.07209853 -0.01065883 0.00521817
-0.01842189 0.05290625 -0.00841982
-0.04883225 -0.01725224 -0.00390000
0.02534031 -0.03287318 -0.00422836
-0.06207936 0.01822732 0.00207453
0.06524944 -0.00642773 -0.00413916
0.01228876 0.02549881 -0.00422835
0.08522896 -0.01356884 0.00056957
-0.03391549 0.05212208 -0.00020845
-0.08465567 0.02028146 0.00377178
-0.02894790 0.00044267 -0.00922835
0.02637692 -0.02136275 -0.00922835
0.01568538 -0.00279644 -0.00922835
-0.02725544 0.02952986 -0.00422835
-0.03644309 0.02936044 -0.00417275
-0.02905928 -0.06424089 0.00481440
-0.06408766 0.04341576 0.00058109
0.02255494 0.03959549 -0.00922045
-0.00507714 0.06540253 -0.00397053
-0.01769694 0.01871251 -0.00922834
0.03040533 -0.00781195 -0.00422835
-0.05551132 -0.06032278 0.00044716
-0.02948449 -0.01046348 -0.00422835
0.02409825 0.07603365 0.00060050
0.07761602 0.02291592 0.00053357
-0.02358711 -0.02647780 -0.00422836
-0.03394694 0.01795775 -0.00422835
0.04838098 0.00872773 -0.00913675
-0.04472161 -0.05384335 -0.00062787
0.02669478 0.04664579 -0.00877541
-0.00946769 0.04698248 -0.00414355
-0.07296991 -0.02325934 0.00057412
0.05797077 0.05765787 0.00549813
-0.05716135 0.03811913 -0.00128021
0.00577688 0.04986762 -0.00408056
-0.00928007 -0.06122613 -0.00048577
0.00744721 0.04398251 -0.00922834
-0.04499158 -0.02701219 -0.00888843
0.02356015 0.02739810 -0.00922834
-0.03715152 -0.03297307 -0.00907798
0.07362734 0.03444109 0.00552933
0.07140717 -0.02320014 0.00043939
-0.07485873 -0.02210952 0.00558558
0.01367200 -0.01580845 -0.00922835
0.03950017 -0.01066883 -0.00922835
0.00310156 -0.02701528 -0.00422836
0.05324563 0.03542796 0.00115983
0.02585072 0.02240672 -0.00422835
-0.05690564 -0.06438867 0.00053416
-0.03474305 0.05317532 0.00100975
0.04239655 0.02975880 -0.00895846
-0.01842329 0.06424726 -0.00279574
-0.00713946 0.02268886 -0.00422835
-0.03049419 0.08021941 0.00510960
0.06908659 0.03678338 0.00058630
0.00896620 0.01025446 -0.00422835
-0.01281958 -0.03565655 -0.00922835
0.05802723 0.05170595 0.00058137
-0.00426882 0.05321802 -0.00881052
0.08016531 -0.03179819 0.00054617
0.02521466 -0.03899837 -0.00418938
0.05275102 -0.00419306 -0.00888502
-0.00466691 -0.05077359 -0.00399815
0.03667070 0.04751637 -0.00745193
-0.04204992 -0.04955080 0.00227918
-0.07897453 -0.02805716 0.00534063
0.00904397 0.04996452 -0.00402795
-0.00534564 -0.06290463 0.00061261
0.06359219 -0.03933964 0.00543799
-0.06672882 -0.01597113 0.00423603
-0.02055290 0.06913634 0.00511671
0.07241181 -0.01165380 0.00530265
-0.00111366 0.05988045 -0.00205004
-0.02869059 -0.00932247 -0.00422835
-0.03961593 0.04570536 -0.00718125
0.00827977 0.08004224 0.00055194
-0.08455655 0.01296014 0.00040807
-0.00411434 -0.00016521 -0.00422835
-0.07963326 -0.02462944 0.00537113
-0.00071177 0.05066082 -0.00902449
0.03690811 0.06046839 0.00484475
0.06168672 -0.04940564 0.00059337
0.07150904 0.01687262 0.00026497
0.04443796 0.05123114 -0.00209157
0.06912905 -0.00701634 0.00438688
0.05929002 -0.05480548 0.00054265
0.04087327 -0.06054387 0.00019971
-0.04004388 -0.00724677 -0.00922835
0.01741209 -0.06058367 -0.00601375
-0.03617386 -0.06374558 0.00534250
-0.05573106 0.01741274 -0.00785520
-0.00878265 -0.01409252 -0.00922835
-0.02443577 0.05915775 -0.00527392
0.00469745 -0.01815362 -0.00422836
-0.08481599 -0.01871767 0.00409417
0.03162603 -0.02451403 -0.00922835
0.05546714 0.03603909 -0.00359506
0.06230582 0.00344621 -0.00027453
-0.01133034 -0.04230551 -0.00422836
-0.02035517 -0.08211666 0.00028491
-0.04503930 0.02772096 -0.00379416
0.03965097 -0.03756034 -0.00361709
-0.01972397 0.08313130 0.00032724
-0.06592396 0.01002246 0.00335125
-0.00044681 0.01361112 -0.00922835
0.06989486 -0.00753861 0.00464106
-0.01987290 0.03258303 -0.00422835
-0.05303556 -0.01671797 -0.00846062
0.05172828 0.03183007 -0.00166059
-0.00777784 0.07860557 0.00059447
0.03410864 -0.05464440 -0.00506047
0.05377392 0.06919755 0.00271340
0.01637595 -0.08431616 0.00045867
-0.05305796 -0.05542172 0.00558719
0.02828534 0.07137018 0.00558743
0.07701053 0.02700593 0.00551096
-0.01563410 0.05069407 -0.00885449
-0.00132476 -0.04180908 -0.00422836
0.07015162 0.02829810 0.00049612
0.01936063 -0.00810662 -0.00422835
-0.00930357 -0.03961454 -0.00922835
-0.02266136 0.06286503 -0.00278713
-0.05340748 0.03407483 0.00092304
0.04559489 0.04147948 -0.00684690
0.02577719 0.06928020 0.00537316
0.08188667 0.03098659 0.00337092
0.03896575 0.02961784 -0.00915012
-0.00259914 0.05946436 -0.00759094
-0.03076700 0.06322291 0.00472613
0.02579878 0.08367873 0.00267906
-0.04400536 0.05368678 0.00445538
-0.04114809 -0.02784128 -0.00907802
0.02337764 0.05147974 -0.00836640
-0.07360800 0.02238318 0.00057707
0.01050700 0.04363092 -0.00422835
0.06602430 -0.05219647 0.00032806
-0.06320377 0.01966475 0.00306331
-0.06573142 -0.04352918 0.00558468
0.00936616 0.00415512 -0.00922835
-0.04048376 -0.06631836 0.00558606
0.05576451 0.05984531 0.00047815
0.06921924 0.05025884 0.00523497
0.00508981 0.02932009 -0.00922834
0.05149294 0.03993006 0.00218492
-0.01938261 -0.00904005 -0.00422835
0.07279630 0.03444259 0.00557868
0.01346463 -0.04455546 -0.00418448
0.05066232 0.05120388 -0.00005642
0.04139101 0.04952226 -0.00502606
0.02131413 -0.05092412 -0.00855114
0.08508128 -0.01942273 0.00404440
0.04356246 -0.00971011 -0.00422835
-0.03556057 -0.07046544 0.00059499
-0.03007711 -0.08175320 0.00387984
0.08066474 0.02369678 0.00534639
0.01776190 -0.06896301 -0.00022104
0.01711071 -0.05534022 -0.00801911
0.01005711 0.02186895 -0.00922834
-0.04195004 0.05209061 0.00340526
0.05607640 0.05031825 0.00548635
0.08527479 0.02014597 0.00249555
-0.04829351 0.01141860 -0.00409061
0.06211310 0.02417744 -0.00316986
0.01059006 0.03215698 -0.00422835
-0.04288635 0.06327837 0.00558762
0.02301037 0.00959909 -0.00422835
-0.03497337 -0.06087219 -0.00056746
-0.04625232 -0.00159438 -0.00418530
0.06450643 0.05763193 0.00484609
0.05729779 -0.01184778 -0.00790753
0.00799653 -0.05359615 -0.00367669
0.05270352 0.05504980 0.00555762
0.07150819 -0.04948862 0.00110872
0.00297487 -0.05751780 -0.00808063
-0.02431325 -0.05728002 -0.00637548
0.05730972 -0.06513352 0.00461847
-0.05070197 0.06741500 0.00530874
-0.05705655 -0.04674934 0.00538460
0.00053971 0.00859620 -0.00922835
-0.06960801 -0.04474370 0.00039426
0.03142022 -0.05296845 -0.00090889
0.03036680 -0.03733385 -0.00917630
0.02479545 -0.00944957 -0.00922835
-0.05253846 0.02346806 -0.00289038
0.03770394 -0.03609504 -0.00892755
0.07430365 0.02345013 0.00558618
0.02909548 0.02826792 -0.00422835
-0.04585694 -0.00579176 -0.00418708
0.01544904 0.05973901 -0.00675401
0.08143942 -0.03083731 0.00123300
0.01926501 0.00970472 -0.00422835
0.07710864 -0.03972848 0.00085032
-0.03432148 -0.04048728 -0.00882889
0.01858035 0.05839666 -0.00696547
-0.04578924 -0.04904757 -0.00247679
-0.07983376 -0.01279176 0.00051503
-0.00581194 -0.04079131 -0.00922835
-0.01747370 0.00044267 -0.00922835
-0.04133151 0.06250599 0.00547295
-0.02530658 -0.03369108 -0.00422836
-0.02635442 -0.02579948 -0.00922835
0.07352330 -0.01182939 0.00037221
0.01861574 0.06759183 0.00462062
0.07413819 -0.02418336 0.00558609
0.05501514 0.00217497 -0.00354953
-0.04085940 -0.00433027 -0.00422835
0.07459190 -0.02996944 0.00558324
0.00747242 -0.04797782 -0.00916633
0.01389199 0.06958176 0.00487857
-0.04213719 -0.06980340 0.00047419
0.00800686 0.02071210 -0.00922834
0.05750394 -0.03775286 0.00418871
-0.04773502 -0.00368991 -0.00917555
0.04985161 0.06880977 0.00528405
-0.00621487 -0.05896954 -0.00229843
-0.03143253 -0.01903065 -0.00422836
0.02635317 -0.00915411 -0.00422835
-0.02971088 -0.01865697 -0.00422836
-0.00854450 0.06847224 -0.00117963
-0.04932124 -0.00560968 -0.00408924
-0.04367002 -0.07549988 0.00352219
-0.06696306 0.05129020 0.00530772
0.06610646 -0.03612944 0.00548586
-0.02443190 0.03541349 -0.00922834
0.07255481 0.04559426 0.00033542
-0.00573455 -0.04478457 -0.00922443
-0.03867330 0.03828480 -0.00360685
-0.03736344 0.04570356 -0.00771029
-0.02436324 -0.02380748 -0.00422836
-0.02269067 -0.00777409 -0.00422835
0.04147930 -0.00659158 -0.00922835
-0.02621516 -0.06011831 0.00264175
0.01061718 -0.07740075 0.00058655
-0.05420467 -0.00093251 -0.00865962
0.03586475 -0.01730144 -0.00922835
-0.03863565 0.01934353 -0.00422835
-0.06121032 0.03586388 -0.00025276
-0.05378518 0.04077637 0.00372680
0.01514674 0.01764691 -0.00922834
0.08100855 0.00455438 0.00052069
0.02946000 -0.00444457 -0.00422835
-0.00314431 -0.03646373 -0.00922835
0.04799816 0.04615442 0.00310625
0.00746423 0.07173633 -0.00000864
0.04825180 -0.03278820 -0.00794710
-0.05499021 0.05213472 0.00554367
0.03116041 -0.03921375 -0.00408503
0.01559272 -0.07416176 0.00053189
0.01651792 -0.03299760 -0.00422836
-0.01438675 -0.02974854 -0.00422836
-0.05292859 -0.04129520 -0.00242193
-0.05217058 0.03137879 -0.00702022
-0.01435258 -0.06972196 -0.00020857
0.07423746 -0.04633170 0.00348363
-0.04527544 0.02586964 -0.00387167
-0.06888617 -0.00993954 0.00454327
-0.08172824 -0.01681695 0.00536466
0.06768582 -0.02916879 0.00029601
0.00710325 0.08276685 0.00540254
-0.01877909 0.08028819 0.00544105
-0.05493054 0.05824209 0.00558336
0.05143187 0.00555447 -0.00896354
0.03044569 0.07350758 0.00558414
-0.05911658 -0.06421269 0.00310259
0.04309655 -0.01739256 -0.00920568
-0.01443906 0.05939475 -0.00123956
0.04999208 -0.05059574 -0.00026429
-0.05382568 -0.03765805 0.00275182
-0.00893082 0.01901758 -0.00422835
0.02985929 0.03869306 -0.00412140
-0.06248792 -0.03434189 -0.00015085
-0.02449688 -0.07338891 0.00058054
-0.05455151 0.04134557 -0.00143470
0.04860335 0.06025435 0.00558672
0.03476873 -0.05143050 -0.00046780
-0.00125470 0.01457928 -0.00922835
-0.00653666 0.07790591 0.00058684
0.04810570 -0.02308464 -0.00883844
0.00288721 0.01141942 -0.00922835
-0.03263640 0.07490459 0.00548616
-0.06241409 0.00194951 0.00013883
-0.07140462 0.00375752 0.00503203
0.00822470 -0.06196136 -0.00001857
-0.04914530 -0.01860998 -0.00382570
0.01269654 -0.06231831 0.00097582
-0.01440766 0.03458795 -0.00422835
0.02395401 -0.07033019 0.00037266
-0.05961214 -0.04503328 0.00043849
0.00158632 -0.05690412 -0.00313453
0.06219421 0.01382772 0.00094003
0.03612890 -0.00044328 -0.00422835
0.00548975 0.03686477 -0.00422835
0.06096311 -0.00424367 -0.00137244
0.07299151 0.00960838 0.00534333
-0.04763183 0.01004326 -0.00411736
-0.04184345 -0.05314553 0.00379722
-0.02490067 0.02721142 -0.00922834
0.00582661 0.00019342 -0.00922835
-0.07829718 0.03778663 0.00151186
0.06576208 -0.03064144 0.00516106
-0.05281752 -0.00273737 -0.00885013
0.02326332 0.08338636 0.00473168
0.03608441 -0.01890936 -0.00922835
0.04076373 -0.06228795 0.00038232
-0.02811569 0.04390368 -0.00387674
0.03284375 0.05168755 -0.00125146
0.03103898 -0.00984021 -0.00422835
0.03687629 0.02003765 -0.00422835
-0.02655650 0.04429239 -0.00392886
-0.07067348 -0.01752892 0.00021572
0.05505388 0.05617505 0.00059005
-0.02570570 -0.05011280 -0.00836528
0.07261189 -0.00560261 0.00520733
-0.05409812 0.04516225 0.00480913
0.03766984 -0.04282131 -0.00314638
0.03816536 -0.03724355 -0.00883177
-0.00523708 0.06184590 -0.00653299
-0.05487048 -0.04222149 0.00442410
0.07358111 -0.03721453 0.00043443
-0.06500465 -0.05814582 0.00328498
-0.01775839 -0.00743259 -0.00422835
-0.01746041 0.00028667 -0.00922835
0.02528570 0.07326830 0.00058021
-0.00292628 -0.02977351 -0.00422836
-0.00447396 0.00059338 -0.00422835
-0.08297909 0.01677522 0.00028130
0.04690523 -0.07176060 0.00517696
-0.04771771 0.05407211 0.00002659
0.02610233 -0.06521439 -0.00061626
-0.04338785 0.02559710 -0.00404767
-0.02140065 -0.05156442 -0.00333847
0.03385935 -0.00734039 -0.00922835
0.03085894 -0.03510017 -0.00919984
0.04237981 -0.02724985 -0.00407624
0.07144399 0.04217081 0.00040537
0.06950054 0.03766951 0.00558485
-0.03035641 -0.02840013 -0.00922835
-0.00532645 -0.02487425 -0.00422836
-0.06667087 -0.00491530 -0.00266145
-0.06596533 -0.02360695 -0.00057741
0.07118350 0.05103053 0.00338232
0.05047464 -0.01180048 -0.00393341
-0.01028236 -0.01885998 -0.00922835
-0.07167158 0.01375282 0.00530524
-0.03153771 0.07861862 0.00028203
-0.08420737 -0.00087855 0.00030420
0.05768514 -0.06152254 0.00532337
0.04840155 -0.07172636 0.00478855
-0.01603791 0.02591439 -0.00922834
0.01759574 -0.01557314 -0.00922835
0.06697958 -0.02183918 0.00470143
0.05572424 0.05416894 0.00058141
0.05966846 -0.06298730 0.00460034
-0.02676156 -0.06291113 0.00412354
0.00633834 0.02294305 -0.00422835
-0.07805581 -0.03894862 0.00321965
-0.04799620 0.04478956 -0.00380958
-0.03342334 0.07942660 0.00062903
0.03676330 -0.00516257 -0.00922835
0.02268847 0.02932015 -0.00922834
-0.06649226 0.05425615 0.00047247
-0.03723414 0.02334381 -0.00422835
0.04111041 -0.04535840 -0.00124833
-0.03083696 0.07044743 0.00558709
-0.05954315 -0.04767674 0.00558727
0.05163742 0.06028001 0.00059674
0.02414276 0.01770830 -0.00922835
-0.01183522 0.05859288 -0.00748539
0.01327635 0.07525580 0.00057043
0.00563626 -0.06837716 -0.00143212
0.06298524 -0.04833555 0.00059690
-0.00725701 0.07700056 0.00558669
-0.04878641 -0.04382501 0.00266287
-0.00242515 -0.07641946 0.00057176
-0.05331910 0.06039060 0.00053663
-0.05404667 -0.00671454 -0.00862232
-0.06418639 0.04408731 0.00558587
-0.01986908 0.02987146 -0.00922834
0.04286887 0.06069635 0.00036134
-0.04275261 -0.04961950 -0.00388192
0.04343157 -0.00170245 -0.00922835
-0.00772927 0.04600026 -0.00919963
0.04667003 -0.00449815 -0.00417938
-0.00037120 -0.04225772 -0.00922835
0.06533586 0.02372198 0.00439772
0.06772651 -0.04864829 0.00037435
-0.00176007 -0.02617659 -0.00922835
0.04999189 0.01138162 -0.00899684
0.02012917 -0.07367620 0.00057048
-0.06690089 -0.00576973 0.00358678
0.06801353 -0.05149552 0.00526163
-0.00701695 -0.03780911 -0.00922835
-0.04669488 -0.04478388 -0.00462284
0.02214990 -0.00610874 -0.00922835
-0.02761132 0.01716544 -0.00922835
0.07000118 0.00049924 -0.00077702
-0.03315368 0.04435328 -0.00342478
0.08096055 -0.02599991 0.00528243
0.02133384 -0.08440046 0.00412723
0.02124519 0.02967733 -0.00922834
-0.07955131 -0.03002244 0.00526024
0.04682930 -0.06372269 0.00558469
0.06875790 0.04363505 0.00049925
-0.07092452 -0.03279704 0.00058840
-0.05862770 0.01986173 -0.00651344
-0.03037604 0.03424992 -0.00420218
0.03704917 -0.07212664 0.00553420
0.03621879 -0.06938429 0.00558560
-0.00801852 -0.07070389 0.00494216
0.04855111 -0.04237978 -0.00507598
-0.04395827 0.06167465 0.00553713
0.07279289 -0.01074400 0.00534169
0.04436153 -0.07431277 0.00474213
-0.03283008 0.06724306 0.00545995
-0.05720284 0.05929957 0.00042123
-0.06428618 0.05901957 0.00227897
-0.03467614 0.00690525 -0.00922835
-0.04850730 -0.04520960 -0.00316219
-0.01739429 0.02286725 -0.00422835
0.06368411 0.04875838 0.00057673
-0.04170497 0.01259428 -0.00422835
0.01670370 0.01707775 -0.00922834
0.00570933 0.08730275 0.00246570
0.07635639 -0.03838050 0.00524327
0.00604952 -0.06201747 -0.00015355
0.07169213 -0.02168120 0.00041731
0.01782163 0.06162402 -0.00526410
-0.05937934 -0.03669179 0.00461385
0.04042476 -0.04800268 -0.00620416
0.00402910 -0.01620977 -0.00422836
-0.02485210 -0.01704378 -0.00922835
0.02274850 0.08395272 0.00121528
-0.06050505 -0.00506921 -0.00706834
-0.08563157 0.01067320 0.00474664
-0.06505620 -0.03277372 0.00022044
-0.08480287 0.02051658 0.00306045
0.01409356 0.03029680 -0.00422835
0.00818413 0.06286639 -0.00578754
0.07537984 -0.04308202 0.00096656
0.03967299 0.05371698 -0.00297459
-0.02718566 -0.05439743 -0.00138969
-0.01542836 -0.05615587 -0.00269137
0.00142013 0.01721800 -0.00922834
0.01879415 0.04812756 -0.00896302
0.01522950 -0.08269375 0.00032193
-0.04052620 0.01704602 -0.00422835
-0.04751417 0.00792713 -0.00413178
-0.04269796 -0.02113830 -0.00414686
-0.04534619 0.00390891 -0.00921598
0.02025415 -0.02545827 -0.00922835
-0.03492190 0.06642355 0.00046266
-0.00372875 -0.00674469 -0.00922835
0.02093366 -0.00724725 -0.00422835
0.01596962 -0.03267151 -0.00922835
-0.03820425 0.06682851 0.00057641
-0.08299700 -0.01442063 0.00030238
-0.06415438 -0.04282079 0.00558670
0.03575402 -0.05207151 0.00054800
0.05970546 0.00821652 -0.00193168
-0.03060545 -0.05814948 0.00273146
-0.00146804 0.02701238 -0.00422835
-0.06477680 -0.02484840 0.00447169
0.03086412 -0.05760533 0.00236614
-0.04258381 -0.04624086 -0.00602904
-0.03000472 0.05815314 -0.00401929
-0.03657914 -0.04774273 -0.00729876
-0.07544502 -0.01703403 0.00058091
-0.03818831 0.06989632 0.00558384
0.04937323 -0.00215963 -0.00410726
-0.04555491 0.01444166 -0.00917731
0.06306530 -0.02653385 0.00401169
-0.05383545 0.00671781 -0.00865358
-0.05278435 0.01251989 -0.00363113
0.05164566 0.05778411 0.00057949
-0.04336002 -0.00633405 -0.00922835
-0.00744721 0.03883393 -0.00422835
-0.08064663 0.00433751 0.00553962
-0.06480798 -0.05678568 0.00485306
-0.02920193 0.04392656 -0.00887764
-0.05113495 -0.05223691 0.00026612
0.02709655 -0.05297856 -0.00224394
0.00578374 -0.05258508 -0.00380717
0.05543095 0.05130972 0.00048489
0.07753357 -0.01681949 0.00558449
-0.05040773 0.01611221 -0.00378973
-0.06185221 0.01054870 -0.00605873
0.06315687 -0.00093496 0.00044170
0.01558509 -0.00483361 -0.00922835
-0.06649601 -0.02229230 -0.00054963
0.03519445 0.01366996 -0.00422835
0.06092553 -0.02708191 -0.00308993
-0.03887366 0.07409850 0.00034311
0.03878579 0.01956696 -0.00422835
0.08492684 0.02009421 0.00407248
0.01665256 0.04226796 -0.00421819
0.03733877 -0.03768067 -0.00886940
0.01243818 0.02167801 -0.00922834
0.02787089 -0.02757167 -0.00422836
-0.01358908 -0.08364719 0.00028144
0.01973573 -0.04950399 -0.00377313
-0.06954430 -0.00042957 -0.00080511
-0.04554737 -0.04567710 0.00190962
0.05243340 -0.01697141 -0.00353061
0.04688469 -0.06622777 0.00051282
0.00506306 -0.05012777 -0.00904074
0.01926039 0.03588582 -0.00422835
-0.03140091 -0.05574144 0.00142667
0.04267037 -0.01519659 -0.00922573
0.07198607 -0.00474891 0.00508013
0.07671539 0.03937034 0.00504299
-0.02934276 -0.00834852 -0.00422835
0.01308830 0.00702639 -0.00422835
-0.06141951 0.01547948 0.00094044
0.06250275 -0.05738112 0.00028431
-0.00468658 0.07072784 -0.00033753
-0.05522217 0.03924480 -0.00191412
-0.03867257 -0.03862487 -0.00859904
0.06438576 -0.00552389 0.00170970
-0.02530802 -0.05935588 -0.00482122
0.02607612 0.04165061 -0.00913355
-0.05980935 0.03476472 0.00439813
0.00601677 -0.07090700 0.00493645
-0.06110719 0.05163086 0.00057017
0.02180862 0.00913295 -0.00422835
-0.04189526 0.03111931 -0.00386561
-0.02542318 -0.07997972 0.00032794
0.04117200 0.07427113 0.00028139
-0.01867443 -0.06617591 -0.00127719
-0.04476971 -0.03364290 -0.00328754
-0.07210922 -0.01815288 0.00543554
0.00644142 0.00912687 -0.00922835
-0.01899618 -0.06765409 -0.00053961
-0.01310392 0.01092138 -0.00922835
-0.01692038 -0.07125187 0.00532477
-0.06378672 -0.04173318 0.00057085
0.06201470 0.03900956 0.00528453
-0.02133471 -0.06123912 0.00214159
0.04628423 0.02334783 -0.00393488
0.05633619 -0.03941894 0.00417583
-0.05238911 0.03514964 0.00065949
-0.01188687 -0.07467677 0.00052018
-0.05897011 -0.01371063 -0.00713733
0.02299345 -0.01184256 -0.00422835
-0.01893130 -0.01023897 -0.00422835
0.06092681 -0.00770337 -0.00116352
0.03093669 0.02025978 -0.00922834
0.03613376 -0.01332967 -0.00922835
-0.03224790 -0.00296254 -0.00922835
0.06155851 -0.02537512 0.00310416
0.02318578 0.05599352 -0.00721909
0.08635315 -0.00498024 0.00487106
-0.08069262 0.02492101 0.00530017
0.01853803 0.02917365 -0.00922834
0.03512766 0.06445439 0.00531942
-0.03392878 0.00043278 -0.00922835
0.00416937 -0.06374130 0.00123657
-0.02699085 0.01495994 -0.00922835
-0.05667708 0.01958131 -0.00189605
-0.00808841 -0.05857262 -0.00769941
0.00680848 0.05338834 -0.00875129
0.05510598 -0.04711714 0.00515321
-0.04208926 -0.02244010 -0.00414509
-0.02041876 -0.06909179 0.00511281
-0.04438556 -0.00608716 -0.00922806
-0.02711336 -0.05783612 -0.00533545
-0.07444494 -0.03392179 0.00045302
-0.00440346 0.08353235 0.00536256
-0.05000163 -0.06586951 0.00541445
0.00310179 0.04294701 -0.00422835
-0.00290241 -0.01810303 -0.00422836
-0.00400560 0.00558774 -0.00422835
-0.05342600 0.02999924 -0.00686731
0.04283430 -0.06229967 0.00050109
0.01337839 0.07351456 0.00041452
-0.02458702 0.08063892 0.00531750
0.01983559 0.06352474 -0.00317050
-0.03778351 0.03713401 -0.00378829
0.02016062 0.03813486 -0.00922834
-0.08722655 0.00309924 0.00253039
-0.02945343 0.06740026 0.00535857
0.05420044 -0.04608612 -0.00026287
-0.00458768 0.05214430 -0.00891041
0.01991573 -0.00061338 -0.00922835
-0.03469218 -0.03275231 -0.00414569
0.03140250 -0.01897947 -0.00422836
0.05854810 0.05514348 0.00056330
0.02761914 0.01337189 -0.00922835
-0.01390629 -0.05774823 -0.00224748
-0.05911190 -0.05823798 0.00038088
-0.07682585 0.00633808 0.00057862
0.06284656 -0.05249627 0.00548848
-0.03390451 0.06382506 0.00005569
-0.05260740 -0.02334752 -0.00804785
0.03287888 0.07470870 0.00048266
-0.05600959 -0.06463732 0.00516088
0.00532302 0.03158378 -0.00922834
0.05794370 0.02459589 0.00021918
-0.03892358 -0.06989820 0.00558334
-0.07833578 -0.01696166 0.00055827
0.08038373 -0.03457373 0.00192971
-0.03361417 -0.05203017 -0.00038502
0.03106790 0.03402874 -0.00420133
0.02085613 -0.04413187 -0.00412052
0.04656125 -0.06746738 0.00547717
-0.03715511 -0.02187100 -0.00922835
0.03154970 -0.02359436 -0.00922835
0.04225736 0.05891327 0.00515625
-0.05646715 0.06303343 0.00028208
-0.01649025 -0.01009651 -0.00922835
-0.01128951 -0.07961974 0.00557063
0.08101977 -0.02393361 0.00030963
-0.00060814 0.00289301 -0.00422835
0.08746509 0.00037562 0.00366299
-0.01539625 0.04137823 -0.00922834
0.03237329 -0.00294591 -0.00922835
-0.02548716 -0.05644121 -0.00653576
0.00256930 0.01177975 -0.00922835
-0.08629538 -0.00778359 0.00439846
0.05280666 0.05679089 0.00558657
0.04189505 0.07135477 0.00542905
-0.01550624 0.02793670 -0.00922834
-0.02967447 0.00541629 -0.00922835
-0.00104629 -0.03644276 -0.00422836
0.07477381 -0.00254554 0.00543792
0.03462224 0.00620273 -0.00422835
-0.06313816 0.05234953 0.00546033
0.03018421 -0.07196432 0.00558584
-0.00867070 0.00217149 -0.00922835
-0.07658748 0.03693540 0.00526268
-0.02395591 -0.00882233 -0.00922835
-0.02366645 0.01303010 -0.00922835
-0.02667331 0.03788167 -0.00418752
0.05046736 -0.00085907 -0.00904864
0.01901753 -0.03660617 -0.00922835
-0.01113313 -0.08552254 0.00066002
0.02426430 -0.03736587 -0.00422836
-0.02781576 0.07560141 0.00054142
0.06262218 0.02038344 -0.00388290
0.01015443 -0.02046766 -0.00422836
0.02977078 -0.05098811 -0.00775549
-0.03998273 -0.06255183 0.00542087
-0.02261036 -0.05722620 -0.00676645
0.08745145 -0.00465324 0.00334732
-0.06463673 -0.01155045 -0.00369086
0.06648177 0.04586794 0.00054317
0.04949423 0.06888858 0.00529327
0.02010898 -0.04315779 -0.00415496
0.05479559 -0.01027531 -0.00849098
0.03912767 0.01409696 -0.00422835
0.02249877 0.01067506 -0.00422835
0.07345228 -0.00091513 0.00532248
-0.04188234 -0.07332003 0.00530241
-0.00279166 0.02913313 -0.00922834
-0.04669333 0.04841717 -0.00234764
0.06055388 0.00310546 -0.00724002
0.06713551 -0.02350036 -0.00028530
0.00302810 0.03630491 -0.00922834
0.06948023 0.02383335 0.00026662
0.02198237 -0.07055138 0.00537956
0.00040931 0.06204437 -0.00656317
0.01026069 -0.05324077 -0.00367193
0.05071716 -0.05329437 0.00028486
0.05412738 -0.01175958 -0.00347605
-0.05787566 0.03284128 -0.00294584
0.04302561 0.01794721 -0.00920340
0.06069586 -0.02160452 0.00154491
0.04296291 -0.01502883 -0.00421833
-0.04412020 -0.07493501 0.00148054
-0.00604558 -0.08644279 0.00460218
0.03672908 0.03588807 -0.00398310
0.07159078 0.02756338 0.00057167
-0.01536261 0.05850410 -0.00167357
0.08090279 0.02354936 0.00533423
0.01146331 0.05954578 -0.00718712
-0.04933643 -0.03464929 -0.00723459
-0.06101662 0.00787854 -0.00073094
0.02359588 0.07254281 0.00556905
0.02469367 0.01819487 -0.00922834
0.08440551 0.02363431 0.00276334
0.01690700 0.08431883 0.00506801
0.01311709 0.04704317 -0.00412064
0.02837392 0.00527818 -0.00922835
-0.05485567 -0.01058508 -0.00330825
0.05512125 0.06217757 0.00039375
-0.08181207 0.01516128 0.00538058
0.02733899 0.03710761 -0.00921148
-0.00590502 0.04870278 -0.00411163
-0.04703140 0.02513960 -0.00879127
0.00349657 0.03114223 -0.00422835
-0.00648291 -0.08132261 0.00549614
0.05580603 -0.06644537 0.00457605
0.07640754 0.02615600 0.00054247
0.02805089 -0.07418937 0.00558437
0.01371851 0.00087123 -0.00422835
-0.00468659 -0.06688144 -0.00262396
