# .PCD v0.7 - Point Cloud Data file format
VERSION 0.7
FIELDS x y z
SIZE 4 4 4
TYPE F F F
COUNT 1 1 1
WIDTH 1000
HEIGHT 1
VIEWPOINT 0 0 0 1 0 0 0
POINTS 1000
DATA ascii
-0.00738055 -0.03753320 -0.00614760
0.00574803 0.01547833 -0.00016632
-0.00497327 0.00237773 -0.00182376
0.00574803 -0.00679684 -0.00026720
0.00934514 -0.06546159 0.00138705
0.00349029 -0.06221630 -0.00203418
0.00303280 0.04891896 0.00344798
-0.00223247 0.00419342 -0.00352873
-0.00081809 0.01017640 -0.00382643
-0.00423140 -0.03256551 -0.00318718
0.00923184 -0.05459621 -0.00427671
-0.00842774 -0.06996296 0.00355300
-0.00715361 -0.04419813 -0.00390029
0.00269763 -0.03338812 -0.00340857
-0.00354668 -0.00589911 -0.00292250
-0.00812281 -0.06459763 0.00103139
0.00344346 -0.04210702 -0.00404690
0.00353591 0.06637888 0.00319330
0.00267859 0.05317037 -0.00328179
0.00574803 -0.00876859 0.00019550
0.00079681 0.05145319 0.00411089
-0.00231254 -0.07474043 0.00390289
-0.00240891 0.05577518 0.00372414
-0.00575864 0.04658726 0.00063045
-0.00078672 0.02675643 0.00408013
0.00210165 -0.01851445 -0.00147692
-0.00352660 -0.02949094 -0.00443090
0.00372054 0.04099278 0.00304958
0.00421916 -0.04438037 -0.00389196
-0.00630602 -0.03594759 -0.00611107
-0.00220650 0.02687876 0.00377692
0.01012065 -0.03507982 -0.00462945
0.00340658 -0.03555718 -0.00606345
0.00280941 0.04718362 0.00354067
-0.00277149 0.01756353 -0.00328586
0.00184837 0.02083903 0.00386332
0.00249329 -0.03302074 -0.00330970
-0.00723321 -0.05945218 -0.00086382
0.00291661 -0.00236222 -0.00324173
0.00394419 0.03114860 -0.00262570
0.00211366 0.00110153 0.00377132
-0.00462376 0.00591867 -0.00212704
-0.00165531 -0.02755798 -0.00183952
0.00372642 -0.00877086 0.00299145
0.00273616 -0.00034450 0.00351971
0.00379724 -0.01171813 0.00294375
-0.00575864 0.02931129 -0.00083347
-0.00250789 -0.00917691 0.00361120
-0.00259777 -0.07226095 0.00247909
0.00455031 0.03393578 -0.00215161
0.00352636 0.01019106 -0.00291100
-0.00540424 0.06102305 -0.00126068
0.00574803 0.05224145 -0.00042288
0.01134389 -0.04374995 -0.00394866
0.00692631 -0.06154669 -0.00226520
-0.00951554 -0.03514239 -0.00388069
0.00452331 0.00271653 -0.00220949
0.00013369 0.03937663 0.00414281
-0.00336096 -0.03307021 -0.00539416
-0.00560151 -0.01496601 0.00127639
0.00383705 0.05127333 -0.00267098
0.01106169 -0.04929903 -0.00530190
0.00574803 0.07116544 0.00008427
-0.00130696 0.06034890 0.00404084
0.00008794 -0.03417666 -0.00362079
-0.00343493 0.06818985 -0.00291167
0.00574803 0.05785000 -0.00008552
-0.00289605 0.04008335 0.00350072
0.00491942 0.00318731 0.00207238
0.00105451 -0.01731208 -0.00115335
-0.00092365 -0.03008461 -0.00459067
-0.00189716 0.02968074 0.00386488
0.00152605 -0.04988316 -0.00522885
-0.00244499 -0.01627211 0.00363008
0.00433535 0.00652026 -0.00237051
0.00238800 0.03011525 -0.00343006
0.00399464 -0.06647637 0.00175352
0.00787173 -0.07439315 0.00371571
-0.00042998 0.04471649 0.00412551
-0.00820355 -0.04157112 -0.00407373
0.00577625 0.00674846 -0.00039821
-0.00024425 0.00673517 -0.00387562
-0.01140013 -0.04335244 -0.00396293
0.00972237 -0.05574101 -0.00194807
-0.00575864 0.05346259 0.00003360
-0.00229908 0.00450708 -0.00350019
-0.00207512 0.02977703 0.00381615
0.00401363 0.03785295 0.00286210
0.00101672 0.03807023 0.00406847
-0.00498680 -0.02603579 -0.00350106
-0.00143489 -0.03449170 -0.00370557
-0.00438009 0.03570266 -0.00230862
-0.00236560 0.07034499 0.00375840
0.00548857 -0.00244721 -0.00121500
-0.00420190 0.05285898 -0.00244646
-0.00625039 -0.05305177 -0.00407923
0.00517106 -0.00872450 0.00179230
-0.00709731 -0.06537219 -0.00080725
-0.00351093 0.02270548 0.00316787
-0.00647689 -0.05731571 -0.00343756
0.00495043 0.06873781 0.00211679
-0.01129788 -0.04945311 -0.00448423
-0.00034576 0.02930466 -0.00384708
-0.00059041 0.00488671 -0.00384949
-0.00820092 -0.03219867 -0.00515961
-0.01048191 -0.04395775 -0.00593309
0.00475315 0.03098762 0.00224890
0.00092876 -0.05662827 -0.00366128
-0.00371005 -0.02692033 -0.00373910
0.00574803 0.03073411 0.00058238
0.00574803 0.01524237 -0.00021884
-0.00276064 0.06417304 -0.00323949
0.00635803 -0.05507728 -0.00300243
0.00035031 0.01173090 0.00409195
-0.00224687 -0.06012958 -0.00063912
0.00137379 0.05708015 -0.00369134
0.00574803 0.01458885 0.00062767
0.00573014 0.00299357 -0.00091615
-0.00378204 0.00150030 0.00297442
0.00042962 0.01470894 -0.00384671
0.01134510 -0.04387546 -0.00393913
0.00496406 0.04247365 -0.00177865
0.01046575 -0.06176670 -0.00198369
0.00445783 0.00228760 0.00247705
0.00244918 -0.04925289 -0.00330702
-0.00011468 -0.03246187 -0.00315929
-0.00575864 0.04766015 0.00059978
-0.00539444 0.07256239 0.00123648
0.00082117 0.07256613 -0.00218095
-0.01146583 -0.04687507 -0.00462764
0.00457964 0.03550545 -0.00212412
-0.00452124 -0.00082623 -0.00222451
-0.00574628 0.03068831 -0.00087916
-0.00817594 -0.04712230 -0.00360487
0.00124141 -0.03015871 -0.00461061
-0.00321813 0.05533069 0.00338102
-0.00146193 0.06789572 0.00295776
-0.00125704 -0.04544622 -0.00581316
0.00060486 0.02524293 -0.00382471
0.00360133 -0.01175058 -0.00288791
0.00486658 0.06592826 0.00218741
-0.00845446 -0.03168878 -0.00481221
-0.00015365 -0.03412958 -0.00360812
-0.00359497 -0.02531673 -0.00330755
0.00136556 0.06815986 0.00073519
-0.00064868 0.04410640 -0.00381361
0.00152562 -0.00159582 0.00391288
0.00365641 0.00802370 0.00305379
0.00433868 0.04068310 -0.00233023
-0.00575864 0.00316891 0.00060448
-0.00258532 0.01450865 -0.00336803
-0.00302592 0.06879957 0.00347713
-0.00211870 0.03699239 0.00381207
-0.00262749 -0.00314960 -0.00336949
-0.00702273 -0.06712480 0.00010403
0.00359018 -0.05321525 -0.00455148
-0.00223043 -0.00756473 -0.00354246
-0.00025387 0.03846802 0.00412435
0.00239320 -0.00397127 -0.00346514
-0.00017951 0.03400454 0.00412544
-0.00988578 -0.05067432 -0.00509944
0.00247240 -0.01669015 -0.00288367
-0.00168215 0.02150581 -0.00365556
0.00486663 -0.03452595 -0.00578592
0.00365704 -0.03763034 -0.00615189
0.00955939 -0.06693792 -0.00015160
-0.00469138 -0.02276131 -0.00054869
-0.00441759 0.00975564 -0.00230404
0.00697547 -0.06579228 0.00139022
0.01145546 -0.04370955 -0.00596155
0.00014861 0.01236990 -0.00387183
-0.00055406 0.01773529 0.00407758
-0.00545048 -0.00580326 0.00146955
0.00571985 0.06002832 -0.00086626
0.00182259 -0.00421861 -0.00363893
0.00275608 -0.02741138 -0.00387125
0.00319465 -0.01460560 0.00330996
-0.00861708 -0.05283072 -0.00263155
0.00075621 0.07256421 -0.00041767
-0.00774903 -0.06067951 -0.00256389
-0.00120114 -0.00866825 -0.00380022
0.00752453 -0.06301250 0.00041281
0.00481252 0.06796758 0.00223716
-0.00026406 0.05785389 0.00415393
0.00990131 -0.04011043 -0.00614180
-0.00901777 -0.06867366 0.00291977
-0.00155370 -0.03821708 -0.00414675
0.00289336 0.00108621 -0.00324780
0.00196566 -0.07436063 0.00468322
0.00046934 0.04917640 -0.00381952
0.00107100 0.05582423 0.00407978
0.00574803 0.02381618 0.00030243
-0.00336178 0.00223562 -0.00302972
0.00447456 0.00602377 0.00246644
-0.01079230 -0.05148907 -0.00290553
-0.00661411 -0.05122548 -0.00499862
0.00523334 0.04013956 -0.00147788
-0.00374276 0.03670641 -0.00275278
-0.00270370 0.04709516 -0.00328227
-0.00159617 -0.06771286 0.00218713
-0.00294189 -0.01669022 -0.00282036
0.00557137 -0.00247600 0.00131375
0.00393044 -0.05648600 -0.00173457
-0.00575864 -0.01354979 0.00057826
-0.00383197 0.02085375 -0.00271409
0.00185561 -0.06050823 -0.00262163
0.00161742 -0.00308552 -0.00368797
0.00436720 0.04936521 0.00260820
-0.00347826 -0.00942188 -0.00296932
0.00000992 0.07256598 -0.00203451
0.00674714 -0.06238052 -0.00173214
0.00447913 0.04579082 -0.00220121
0.00552194 0.03179444 0.00141117
-0.00085025 0.07256441 -0.00060490
-0.00486428 -0.04665613 -0.00566795
0.00210132 -0.02218233 -0.00246401
0.00490002 0.05837185 -0.00181754
0.00574803 0.02984476 -0.00071260
0.01039130 -0.04108057 -0.00611181
-0.00335762 0.03424080 0.00327677
0.01072375 -0.03645916 -0.00414754
0.00319160 0.04266859 -0.00307604
-0.00487552 0.00219850 -0.00190986
0.00067156 -0.03296107 -0.00329364
0.00500777 0.05588981 0.00205235
0.00635936 -0.03107511 -0.00485723
-0.00420499 0.00049616 -0.00250099
0.00218961 0.07256374 0.00001699
0.00574803 0.01860366 0.00046736
-0.00305013 0.04251624 -0.00314059
-0.00397315 -0.01669073 -0.00235488
-0.00575864 0.02003074 -0.00051144
0.00192742 0.06468103 0.00389194
0.00213883 -0.05439546 -0.00430382
0.01103738 -0.04337597 -0.00397604
-0.00073040 -0.04153073 -0.00609532
-0.00126721 0.02608682 0.00400626
0.00953016 -0.07130467 0.00425878
-0.00386203 -0.06335466 0.00057463
-0.00482409 0.06201402 -0.00188963
0.00966223 -0.04522907 -0.00382969
0.01059806 -0.05272637 -0.00266509
0.00536783 -0.00593803 0.00155676
0.00498386 0.00785833 -0.00179913
-0.00391824 -0.01218454 -0.00269604
-0.00575864 0.01746749 -0.00059515
0.00538610 0.06383920 0.00161091
-0.00814074 -0.04385395 -0.00392615
-0.00444286 0.00720629 0.00250490
-0.00133675 0.02147949 0.00398415
-0.00143486 -0.01402579 0.00392104
0.00185227 0.05315528 -0.00357917
0.00373516 0.01071622 0.00300728
-0.00524639 0.01701734 -0.00150022
-0.00556555 0.03765281 0.00137756
-0.00186556 -0.03858748 -0.00414547
-0.00001193 -0.03842609 -0.00615208
0.00948373 -0.07399279 0.00563697
0.00455489 -0.00647835 -0.00219179
0.00419954 0.01503793 0.00271799
-0.00059792 -0.02662161 -0.00365870
0.00138299 0.06699831 -0.00078186
0.00482150 -0.04577115 -0.00577559
0.00262903 -0.04056097 -0.00412702
-0.00074154 0.05613185 0.00412285
0.00574803 0.04291339 0.00114064
-0.00107634 0.06648581 0.00409222
0.00574803 -0.01358992 -0.00035778
-0.00575864 0.05288487 0.00086499
0.00048139 -0.04881986 -0.00517874
0.00571555 0.06310376 -0.00086810
0.00289336 0.04397423 -0.00320091
0.00482770 -0.02276699 -0.00055022
-0.00298701 -0.03692165 -0.00413952
-0.00366918 0.03397707 0.00308083
-0.00737773 -0.04153757 -0.00609571
0.00521867 0.00490303 -0.00153421
0.00380960 0.03561439 -0.00270534
0.00574803 0.04097947 -0.00045939
-0.00510295 0.02518477 0.00192482
-0.00048168 -0.01503057 -0.00387622
0.00037921 -0.04099818 -0.00411121
-0.00944963 -0.07214767 0.00473644
0.00113866 -0.06030972 -0.00208703
0.00256749 -0.03769628 -0.00615267
0.00481717 -0.02047331 -0.00078252
0.00119378 -0.06086220 -0.00044680
0.00528293 -0.03452953 -0.00578689
0.00434540 -0.04537414 -0.00582291
0.00177995 0.06524422 -0.00358579
0.00075971 -0.01189015 0.00402873
-0.00575864 0.03136704 -0.00065846
0.00487774 0.02510778 -0.00187351
0.00158674 -0.05613786 -0.00391528
-0.00200478 0.03431012 -0.00356083
0.00382296 -0.04850802 -0.00342579
-0.00046751 -0.03994603 -0.00614491
-0.00614227 -0.05106843 -0.00467286
0.00399464 -0.06007942 -0.00265714
0.00641150 -0.03205389 -0.00304949
-0.00138218 0.06814382 0.00171312
-0.00245403 0.06779626 -0.00336534
-0.00542571 0.05309646 -0.00124333
0.00326653 -0.01860535 0.00056975
-0.00880154 -0.05592015 -0.00190529
-0.00491577 -0.00605684 -0.00188351
0.00370082 0.01420557 -0.00279706
0.00574803 0.01224486 0.00003928
-0.00838863 -0.04888717 -0.00538862
0.00129176 0.06107822 -0.00370499
0.00578399 0.00831581 0.00013578
-0.00178768 -0.06737208 0.00004213
0.00153048 -0.01021098 -0.00371701
-0.00973162 -0.05605052 -0.00393770
0.00224476 0.01079332 -0.00351184
-0.00371923 -0.03745892 -0.00614987
0.00545965 0.04421024 -0.00119903
0.00330665 0.04284793 0.00331153
-0.00248666 0.04450931 0.00367890
0.01025119 -0.03829753 -0.00615900
0.00356153 -0.06297252 -0.00173457
-0.00400525 -0.05833794 -0.00155287
-0.00463710 0.00745630 -0.00211364
0.00475340 0.05626056 0.00227631
-0.00280173 -0.02228250 -0.00041984
0.00410653 0.06026548 0.00282828
0.00265662 -0.02008450 0.00017168
0.00545859 0.01887219 0.00147385
0.00130703 0.03485343 0.00401379
-0.00689143 -0.03169603 -0.00295318
-0.00068346 -0.01022633 0.00403661
-0.00350229 -0.02962237 -0.00239510
0.00343804 0.07039617 -0.00290064
-0.00173406 -0.06248121 -0.00193721
0.00054033 0.03915731 0.00411219
0.00471739 -0.00898887 -0.00205173
0.00574803 0.02820561 0.00054806
0.00309275 -0.01452017 0.00335320
-0.00307268 0.02753062 -0.00314743
-0.00561260 0.04929652 -0.00102089
-0.00464365 0.07197086 0.00239927
0.00635013 -0.04747779 -0.00355809
0.00574803 0.06469297 -0.00009881
-0.00465855 0.00007320 0.00230754
-0.00382404 0.03087401 -0.00270812
0.00187952 0.04624996 -0.00357924
-0.00454843 0.04504213 -0.00215046
0.01108232 -0.05236991 -0.00312080
0.00407547 0.01222713 -0.00256395
0.00726394 -0.06792186 0.00250482
0.00565246 -0.00175583 0.00121621
-0.00575492 -0.03995386 -0.00614444
0.00959564 -0.07036228 0.00373033
0.00992812 -0.06895350 0.00223272
-0.00575864 0.05426761 -0.00017652
0.01003430 -0.05043732 -0.00310976
0.00042136 0.02418138 -0.00383702
-0.00083636 -0.01669650 0.00294773
0.00292677 0.04918482 -0.00318106
0.00740316 -0.04165860 -0.00608953
0.00077116 -0.03787481 -0.00615329
-0.00530433 0.05470208 0.00171292
-0.01031413 -0.04585252 -0.00576271
-0.00354937 -0.00003547 -0.00291440
0.00270004 0.03321709 -0.00329454
0.00910252 -0.07099276 0.00182421
-0.00540249 -0.03402333 -0.00357952
0.00246645 -0.01669495 0.00151106
0.00298921 -0.05593463 -0.00395809
-0.00619002 -0.05188408 -0.00411094
0.00420288 0.05512356 -0.00243379
0.00398289 -0.07422508 0.00476900
0.00141823 0.02203632 -0.00370947
-0.00720820 -0.04270500 -0.00401456
0.00574803 0.01845605 0.00091631
-0.00181618 -0.06699170 -0.00012796
-0.00392168 0.00274307 -0.00267756
-0.00216684 0.00209937 0.00376071
-0.00307862 -0.02169291 -0.00233232
0.00415310 0.02263939 -0.00250381
-0.00562458 -0.02534906 -0.00331625
0.00704330 -0.03805698 -0.00415466
0.00568040 0.04344490 -0.00093222
0.00700944 -0.06664101 0.00105067
-0.00204989 -0.01111992 0.00377353
-0.00851051 -0.06169985 -0.00221964
0.00478434 0.02922367 0.00221956
0.00305883 -0.06095118 -0.00036243
0.01016018 -0.06587085 0.00040722
-0.00575864 -0.00108412 -0.00031333
0.00179969 -0.06343883 -0.00156444
0.00000046 0.02916087 -0.00386537
-0.00178636 -0.02000394 -0.00187778
-0.00728666 -0.05822754 -0.00332039
-0.00095802 -0.01411893 0.00401031
0.00057663 0.01308378 -0.00383668
-0.00400525 -0.07316668 0.00359799
0.00442316 0.06155229 -0.00223317
-0.00352967 0.06673206 -0.00285377
0.00439673 0.01876492 -0.00230318
0.00574803 -0.00158058 0.00044441
0.00396867 0.00419111 -0.00263981
0.00226395 -0.03856354 -0.00615148
-0.00004998 -0.01669047 -0.00258950
0.00165635 0.01483521 -0.00365895
-0.00529330 0.00887983 -0.00145224
0.00342342 0.06278606 -0.00291815
-0.00393739 -0.06064360 -0.00045027
-0.00432808 -0.04041216 -0.00413241
-0.00066185 -0.02371197 -0.00287567
-0.00000457 -0.03360456 -0.00346682
-0.00385632 -0.02899508 -0.00222628
0.00520754 0.07009611 0.00183425
0.00516518 -0.01034499 -0.00161575
0.00470947 0.04547354 0.00230313
-0.00291443 0.02942896 0.00348128
0.00106441 0.04805299 -0.00376263
0.00556035 0.06457423 0.00140044
0.00035205 -0.03268267 -0.00321871
0.00543891 -0.00359771 -0.00127648
-0.00382230 -0.05752586 -0.00350145
0.01051156 -0.04347397 -0.00597934
-0.00326668 -0.06661685 -0.00028063
-0.00469038 0.01374459 0.00229452
-0.00097103 0.00866307 0.00404072
0.00151750 0.01479886 -0.00369302
-0.00357915 0.03472354 -0.00285769
-0.00377031 0.05977436 0.00304554
0.00328071 -0.02302173 -0.00268990
-0.00420522 0.02316631 0.00273121
0.00332289 0.00678061 -0.00304250
0.00397212 0.01356449 0.00286159
-0.00714211 -0.06861717 0.00231482
-0.01043571 -0.04286438 -0.00400077
0.00574803 0.02446471 -0.00025566
0.00053103 0.06213296 -0.00380786
-0.00078701 -0.00708548 0.00403173
0.00117461 -0.04516629 -0.00383029
0.00204168 -0.00436378 -0.00358540
0.00780372 -0.06854035 0.00058729
0.00260747 0.05513647 -0.00330975
-0.00561856 -0.03988075 -0.00614562
0.00549568 0.00942294 -0.00119340
0.00515081 0.03590501 -0.00158258
0.00955832 -0.06518193 -0.00088022
0.00148266 0.06774784 0.00334981
0.01079690 -0.05199927 -0.00281323
-0.01149718 -0.04081541 -0.00612050
-0.00352551 -0.01299936 -0.00294355
-0.00163389 -0.03138598 -0.00494090
0.00526211 0.03519988 -0.00144840
0.00469998 -0.00690552 0.00225419
0.00291665 0.04055451 0.00348801
-0.00856185 -0.03312752 -0.00540958
0.00920488 -0.05104622 -0.00503401
-0.00216201 -0.01244841 0.00374473
0.00259907 -0.01528566 -0.00339033
-0.00393032 0.00880342 -0.00266551
0.00329953 -0.03021832 -0.00255549
0.00348861 0.02711641 -0.00291620
0.00095636 -0.04837306 -0.00546317
-0.00093506 0.06638885 -0.00057986
-0.00575864 0.06147459 -0.00050298
-0.00943389 -0.04290499 -0.00600744
-0.00472151 0.02528916 -0.00201996
-0.00010978 -0.03422841 -0.00363471
0.00048855 -0.04874282 -0.00452421
-0.00568525 0.05948094 -0.00092167
0.00134768 -0.05517530 -0.00413879
-0.00575864 -0.00051696 0.00094884
-0.00026404 -0.03752857 -0.00615069
-0.00315707 0.00154271 -0.00314011
-0.00390241 -0.06501148 -0.00091176
-0.00516465 0.07256517 -0.00128277
-0.00410561 0.05231862 -0.00250785
-0.00216366 0.06987533 0.00383569
0.00968815 -0.06731323 0.00001466
-0.00575864 0.03423826 -0.00065948
-0.00575864 -0.00686068 0.00002674
0.00167085 0.05246716 0.00394900
-0.00921182 -0.06044045 -0.00052864
0.00852556 -0.07121921 0.00193232
-0.00798511 -0.04542490 -0.00581434
-0.00400525 -0.05593405 -0.00220968
-0.00367323 0.02314474 0.00306643
-0.00502729 -0.02654494 -0.00156691
-0.00219505 -0.01756077 -0.00122028
-0.00476329 -0.03050043 -0.00263141
0.00459474 -0.04308737 -0.00600326
0.00400597 0.05757214 0.00288848
-0.00073542 0.05311831 -0.00379875
0.00944997 -0.05480778 -0.00217472
-0.00205517 0.04702181 -0.00353309
0.00086548 0.05781713 -0.00377900
0.01153315 -0.04576899 -0.00536994
-0.00316661 0.03247344 0.00337783
0.00113069 0.06658425 0.00183572
-0.00400525 -0.06507205 0.00081422
0.00108547 -0.05461581 -0.00426632
0.00456767 0.03370219 0.00241489
-0.00362658 0.06869734 0.00314556
0.00011177 -0.03564038 -0.00401472
-0.00026347 -0.01170689 -0.00389074
0.00161926 -0.02528068 -0.00122669
-0.00893472 -0.05256900 -0.00269166
0.00347958 0.06901755 -0.00287606
-0.01008048 -0.04332886 -0.00396539
0.00748466 -0.05535155 -0.00205045
-0.00002292 0.00801184 0.00410959
-0.00869939 -0.07513117 0.00413986
-0.00111259 0.06857014 -0.00211516
0.00459762 -0.02581281 -0.00344103
0.00308507 0.05098030 0.00342810
-0.00048167 0.07256201 0.00158456
0.00360937 -0.04766203 -0.00554878
-0.00756902 -0.06046280 -0.00263696
0.00486734 -0.02097798 -0.00085714
-0.00271021 -0.03548486 -0.00397286
0.00548251 -0.01210483 -0.00123292
0.00317863 -0.03780589 -0.00415240
0.00223319 0.01608254 0.00375067
-0.00677797 -0.02931769 -0.00438428
-0.00113218 0.06854571 -0.00012307
-0.00105347 -0.03524873 -0.00598044
0.00558464 -0.04201300 -0.00406124
-0.00388029 -0.05652168 -0.00172599
0.00201172 0.00276664 -0.00358871
0.00466708 0.05580267 0.00235168
0.00490148 -0.01178370 -0.00189301
0.00756490 -0.03612681 -0.00611812
0.00160020 0.01754495 0.00391947
0.00081478 0.00561604 0.00404680
-0.00440028 0.04947923 -0.00227582
0.00679772 -0.04665664 -0.00365805
-0.00245372 -0.06184109 -0.00004086
-0.00822671 -0.05725703 -0.00151867
0.00379095 -0.03509620 -0.00593939
0.00304782 0.07256318 0.00051876
0.00860033 -0.04759706 -0.00554589
-0.00095429 -0.05665055 -0.00261230
-0.00569766 0.01577765 -0.00095441
-0.00279773 0.03597477 -0.00325461
-0.00575864 0.00223974 0.00108002
0.00535831 0.05947512 0.00163983
-0.00244436 -0.00466396 0.00364304
0.00284650 0.00920824 0.00348342
0.00545884 0.02504080 -0.00122098
-0.00595578 -0.04648291 -0.00368414
-0.00133413 0.05256268 0.00402043
0.00574803 0.02730197 0.00083016
0.00339279 -0.03107312 -0.00485670
0.00706083 -0.04914364 -0.00332598
0.00574803 -0.01100841 0.00058120
-0.00964282 -0.04418748 -0.00591666
-0.00555941 -0.00501318 -0.00114478
0.00861421 -0.05076697 -0.00508567
-0.00212102 -0.03408404 -0.00359586
-0.00448719 0.01942747 -0.00223230
-0.00948544 -0.04823436 -0.00346325
-0.00254282 -0.06072360 -0.00043845
0.00317952 0.01241538 0.00334592
0.00444794 0.03541793 0.00252198
0.00164316 0.00054166 0.00388686
-0.00575864 0.04586077 -0.00073798
0.01019819 -0.06376653 0.00071424
0.00821736 -0.05289315 -0.00261650
0.00474509 -0.00934473 0.00221187
0.00668261 -0.02911501 -0.00432973
0.00399464 -0.07114620 0.00278449
-0.00357684 -0.03106559 -0.00485467
0.00578154 0.00712109 -0.00018355
0.00175198 0.04066024 -0.00362036
-0.00125811 0.06674736 -0.00288175
-0.00023013 0.04681465 0.00413538
0.00439629 -0.00541977 0.00252270
0.00502080 -0.00973105 0.00196915
0.00223837 0.06162325 0.00379826
0.00683950 -0.05959091 -0.00081988
0.00728544 -0.06369562 -0.00146441
-0.00488287 0.00912323 0.00212030
0.00502313 -0.00132173 0.00197630
0.00536940 -0.03501959 -0.00591877
0.00131271 0.07256466 -0.00083181
0.00399464 -0.06234707 -0.00123479
0.00485142 0.05389084 0.00218758
0.00196142 -0.04396686 -0.00593013
0.00515612 0.00014823 0.00182011
-0.00517208 -0.04377012 -0.00393403
0.00710536 -0.03838661 -0.00615711
-0.00297713 -0.06478026 0.00113000
-0.01019008 -0.06563864 0.00015807
0.00143350 -0.01788504 -0.00130754
-0.00494483 -0.02167685 -0.00090899
-0.00392888 0.06453001 0.00295116
-0.00831146 -0.05584192 -0.00399152
0.00549375 0.02969755 -0.00117356
0.01043023 -0.05107142 -0.00502861
0.00397500 -0.01163020 0.00283222
-0.00457857 0.04210239 0.00242379
-0.00837337 -0.04752773 -0.00355057
-0.00575864 -0.00039709 -0.00023549
-0.00687589 -0.06441745 -0.00067879
-0.00877872 -0.07151851 0.00438107
-0.00406229 0.05281822 -0.00253451
0.00384146 0.04535984 -0.00267468
-0.00458618 -0.01785155 -0.00105851
-0.00371314 0.01718750 0.00303485
-0.00495689 0.05240651 0.00210257
-0.00186994 0.06669819 -0.00356241
-0.00003901 0.02269479 -0.00387229
-0.00541487 0.02779986 0.00154949
0.00912107 -0.03379996 -0.00351941
-0.00640010 -0.05552371 -0.00233157
0.00296314 0.07256153 0.00204264
0.00574803 0.02983671 0.00082380
0.00384695 -0.06823942 0.00047781
0.00292565 -0.06375825 -0.00143226
-0.00151247 -0.06693536 0.00004913
0.00499680 -0.02222692 -0.00062808
0.00136231 0.03410819 -0.00371006
0.00574803 0.01757732 0.00078889
0.00149238 -0.06655339 0.00044248
0.00138412 0.06816523 0.00403721
0.00246167 -0.07109519 0.00412319
0.00479394 0.02236259 0.00220362
-0.00931263 -0.05471827 -0.00424821
-0.00444829 -0.01714619 -0.00110871
-0.00488885 0.04505396 -0.00185126
-0.00573030 0.04112101 -0.00088712
-0.00073632 -0.03453571 -0.00371742
0.00565289 0.01081643 -0.00100126
-0.00734015 -0.06852584 0.00280454
-0.00174989 0.00523531 -0.00365341
-0.00321150 0.03748698 -0.00307777
0.00135061 -0.06413478 -0.00080139
-0.00379949 -0.00464541 -0.00276236
-0.00264207 0.02966029 0.00359686
0.00520295 0.07155572 -0.00148037
0.00067190 -0.03976146 -0.00414562
0.00895807 -0.05222295 -0.00480848
-0.00967648 -0.04749087 -0.00557397
-0.00707172 -0.03969447 -0.00414652
-0.00057507 -0.04980657 -0.00487794
0.00412317 0.03604094 -0.00250795
0.00736460 -0.04976059 -0.00525191
0.00714438 -0.06922218 0.00161900
0.00152290 0.04136135 0.00396935
0.00479106 -0.02025777 -0.00056860
-0.01014357 -0.06641449 0.00018648
-0.00197331 0.01208091 -0.00359379
-0.00294277 0.05545658 0.00349775
-0.01063976 -0.05431833 -0.00229688
-0.00299781 0.04239624 -0.00316288
0.00471970 -0.04282926 -0.00399632
-0.00519194 0.04603447 -0.00153449
-0.00358410 0.02657717 -0.00286349
-0.00287455 0.00617203 -0.00325468
0.01123344 -0.04000183 -0.00414166
0.00857804 -0.04262421 -0.00603816
-0.00319130 -0.01669592 0.00241467
-0.00575864 0.00113838 -0.00017909
-0.00493718 0.06922474 0.00213829
-0.00183333 -0.00257102 -0.00363990
-0.00387090 0.06130546 -0.00264542
0.01005131 -0.06737011 0.00114329
-0.00153468 0.03675663 -0.00367815
0.00561173 0.02058241 0.00129004
0.00069077 0.00415967 0.00405488
-0.00160051 -0.00537588 0.00388997
0.00574803 0.01821604 -0.00034327
-0.00069883 0.01151625 0.00405915
0.00448806 -0.01669307 -0.00020580
-0.01006828 -0.06076625 -0.00042158
0.00574803 0.01807478 -0.00033333
-0.00400525 -0.05943261 -0.00248594
0.00399464 -0.06714457 0.00167410
-0.00223155 -0.07253891 0.00494325
-0.00525288 0.01706174 -0.00149229
-0.00159018 0.03779618 0.00394589
-0.00035023 0.05771315 0.00415197
-0.00323145 0.00219863 -0.00310790
-0.00947084 -0.07133754 0.00198448
-0.00292868 0.06375017 0.00351278
-0.00054624 0.06895965 -0.00172900
0.00532684 0.01091232 -0.00139648
0.00860841 -0.05893535 -0.00312272
0.00257224 0.05293385 0.00364739
-0.00196992 0.06179091 0.00388002
-0.00280038 0.00004412 0.00349743
-0.00166924 0.06629982 -0.00361793
-0.01028673 -0.03618151 -0.00611863
-0.00449315 -0.02257650 -0.00049895
-0.00575864 0.06258017 -0.00043825
0.00574803 -0.00115145 0.00046327
-0.00575864 0.03648240 -0.00067024
-0.00456112 0.07116996 0.00247093
0.00574803 0.04954415 -0.00058452
-0.00080046 0.06883354 -0.00182383
-0.00044741 0.03114328 0.00410080
-0.00260517 -0.01997784 0.00020038
0.00841315 -0.03290352 -0.00327815
0.01162387 -0.04426000 -0.00417187
-0.00081642 -0.03666715 -0.00413225
-0.00303324 0.04999807 0.00345347
-0.00285488 -0.01669566 0.00216339
-0.00534078 0.01658713 -0.00138623
0.00673593 -0.06224684 -0.00198073
0.00574803 -0.00153756 -0.00065248
0.00184124 0.03468852 0.00388280
-0.00116539 -0.02630324 -0.00150187
-0.00358574 -0.00919739 0.00308599
-0.00750937 -0.05480530 -0.00218281
-0.00369394 -0.03787227 -0.00614872
-0.00399446 0.06666835 -0.00256196
0.00384530 0.06761546 0.00300037
-0.00579428 0.00833837 -0.00047617
-0.00734059 -0.05729458 -0.00359176
0.00399975 0.01182702 -0.00261194
-0.00344316 -0.01856858 0.00057962
-0.00206590 0.01413499 -0.00356612
-0.00216953 -0.00000579 -0.00355315
-0.00666556 -0.06062357 -0.00197686
0.00334740 -0.03609638 -0.00411598
-0.00828010 -0.05823642 -0.00123577
0.00195319 -0.02111647 -0.00217717
-0.00026250 -0.03648968 -0.00612852
0.00866624 -0.03379194 -0.00351725
0.00275110 -0.06468678 -0.00106421
0.00119954 0.06845549 0.00134652
-0.00435229 0.03238414 0.00261203
-0.00938793 -0.04658659 -0.00567408
-0.01151501 -0.03859219 -0.00600299
-0.01176421 -0.04050845 -0.00412884
-0.00492419 0.02215587 0.00209824
-0.00202699 -0.01378806 0.00377620
0.00070051 -0.01668915 -0.00379615
-0.00108372 -0.00149277 -0.00381531
0.00109454 0.02971564 0.00404774
0.00475685 -0.01168881 0.00219898
-0.00035259 0.00674715 0.00408174
0.00280326 -0.04375202 -0.00594764
-0.00140128 0.02996651 0.00397768
0.00752847 -0.03535379 -0.00600871
-0.00318713 -0.02437203 -0.00305331
0.00493313 -0.03630748 -0.00412199
0.00574803 0.03318681 -0.00062243
-0.00213808 0.02001560 0.00378819
-0.00513089 0.03143941 -0.00162447
-0.00242480 0.03386370 -0.00341483
0.00722908 -0.05562241 -0.00198230
-0.00009648 -0.04455008 -0.00387684
-0.00093517 0.06539471 -0.00376406
-0.00546613 0.05296409 -0.00119446
0.00019683 0.06904218 0.00301999
0.00406360 0.04869127 0.00284258
-0.00095719 -0.03445271 -0.00369508
-0.00400525 -0.05501736 -0.00352048
-0.00485458 -0.02142305 -0.00225970
-0.00038711 0.06035345 0.00415410
0.01132316 -0.03933318 -0.00415085
0.00503848 0.04468630 0.00201144
-0.00479655 0.03766545 0.00222737
0.00575160 -0.03267664 -0.00528824
-0.00307275 0.06278975 -0.00310885
-0.00213289 0.00218524 -0.00356081
0.00719036 -0.03803285 -0.00615664
0.00376609 0.01414665 -0.00275614
-0.00573021 0.05295677 -0.00087429
0.00269040 0.06533649 -0.00326348
-0.00550163 0.01403139 -0.00119400
0.00561265 0.01555629 0.00128343
-0.00490694 0.06736836 0.00216283
0.00742957 -0.03372635 -0.00557074
-0.00343143 -0.00232822 -0.00299097
0.00404929 -0.04218579 -0.00404295
-0.00366227 0.01505056 -0.00282700
-0.00400525 -0.05436829 -0.00406825
0.00468007 -0.04603924 -0.00373456
-0.00433826 0.02608204 -0.00235590
-0.00157421 0.04195835 -0.00366384
-0.00044005 0.03959551 0.00411542
0.00181634 0.01908371 0.00386851
-0.00400525 -0.06108569 -0.00040502
0.00519594 0.02786171 0.00180213
-0.00575864 0.06018183 -0.00027261
0.00136934 0.04015303 0.00400541
0.00574803 -0.00022650 -0.00079722
0.00429067 -0.01437403 0.00260572
-0.01059903 -0.05989278 -0.00235246
-0.00207933 -0.05353611 -0.00449437
-0.00010461 -0.01652382 -0.00390784
0.00228175 0.01596310 -0.00349053
-0.00708009 -0.05434425 -0.00228538
-0.00274505 0.01867405 -0.00329584
-0.00201518 0.03981253 -0.00355195
0.00834850 -0.05182473 -0.00285028
-0.00893046 -0.04499216 -0.00383863
-0.00337934 0.03892799 -0.00297857
0.00178812 0.02129054 0.00387830
-0.00973988 -0.05730215 -0.00150910
0.00554383 0.01498870 -0.00112893
-0.00327391 -0.01002172 -0.00309830
-0.00281709 -0.07441391 0.00604682
-0.00575864 -0.01401095 0.00069112
0.00169359 -0.01312524 -0.00368021
-0.00105980 0.00247530 -0.00381408
-0.00667793 -0.03378311 -0.00558601
0.00302591 -0.05729398 -0.00148474
0.00124060 0.01620525 -0.00375933
-0.00470563 -0.00080772 -0.00206245
-0.00330890 0.03863662 0.00331217
0.00911066 -0.06361447 0.00064999
0.00162728 -0.06528077 -0.00084478
-0.00410308 -0.00402644 -0.00257104
0.01092626 -0.03757231 -0.00415026
-0.00233545 -0.02977181 -0.00450649
-0.00549980 -0.01357733 -0.00122642
-0.00330081 -0.00225567 -0.00307292
0.00920164 -0.03344636 -0.00389328
-0.00575864 0.02504047 0.00037306
-0.00534700 0.05436774 -0.00133737
0.00096186 0.03316314 -0.00379288
-0.00665589 -0.03153887 -0.00498204
-0.00443953 0.03640363 -0.00225561
0.00723630 -0.07081985 0.00239588
0.00090037 0.01798674 0.00405818
-0.00049942 0.06374584 -0.00380934
0.00122477 -0.06195296 -0.00179300
-0.00401956 0.06494472 -0.00254808
-0.00276787 -0.04337930 -0.00597262
0.00373112 0.07256236 0.00127401
0.00010019 -0.02224857 -0.00248184
0.00984855 -0.07057147 0.00175757
-0.00103697 0.04201546 -0.00377490
0.00520636 -0.01652519 0.00174095
0.00141210 0.06804304 0.00160745
-0.00607663 -0.04170738 -0.00405887
-0.00400525 -0.06298494 -0.00118175
-0.00117124 -0.04931209 -0.00532439
-0.00001735 0.02484919 0.00412845
0.00138595 -0.00362993 -0.00374527
0.00125008 0.07036115 0.00405193
0.00756491 -0.03639587 -0.00412451
-0.00019213 0.00204622 0.00408948
0.00321821 0.03849438 -0.00306934
0.00574803 0.00304752 -0.00034258
-0.00368070 -0.06046644 -0.00051011
0.00388732 0.03118584 0.00293412
-0.00391727 0.04402523 -0.00263519
0.00415863 0.07256361 0.00012117
0.00442091 0.04257935 -0.00225589
-0.00548407 -0.03039977 -0.00467549
-0.00012795 -0.00560282 0.00408627
-0.00258124 0.05538898 -0.00332505
0.00095288 -0.02295288 -0.00060025
-0.00115044 0.05194793 0.00406334
0.00550729 -0.00803289 0.00138537
0.00044866 0.00853808 -0.00385193
-0.00105325 0.04257277 0.00406953
-0.00575864 0.05842999 0.00031881
0.00570898 0.00043727 0.00115008
-0.00975152 -0.05526410 -0.00207485
-0.00221711 -0.01455665 -0.00355575
0.00088245 -0.05534742 -0.00218107
-0.00469560 0.03457056 0.00231270
0.00981456 -0.07028482 0.00344410
-0.00148334 0.01069360 -0.00371388
0.00847438 -0.07451196 0.00603196
-0.00281291 0.06951173 -0.00321152
0.00574803 0.03891906 -0.00044842
-0.00575864 0.02849834 -0.00042724
0.00115365 0.02132344 -0.00377508
0.00574803 0.02064486 0.00015169
-0.01003465 -0.06547818 -0.00074981
0.00673173 -0.03622809 -0.00411973
0.00091961 0.07156681 -0.00375099
-0.00088564 0.00963310 -0.00382246
-0.00041053 0.03004252 0.00410256
-0.00579944 0.00763495 -0.00046963
-0.00378889 -0.01624369 -0.00278171
-0.00286365 0.03152559 -0.00323156
0.00347103 0.02311492 -0.00293162
-0.00432129 0.02855348 0.00263510
0.00146882 0.02402229 -0.00369492
-0.00261661 0.02614264 -0.00334206
0.00343575 -0.05380762 -0.00442241
-0.00559426 0.02526235 -0.00106941
-0.00538835 -0.00249370 -0.00134943
-0.00562161 0.05871071 -0.00099968
-0.00400525 -0.07109075 0.00344624
-0.00438916 0.01046547 -0.00232824
0.00507365 0.06443897 0.00199040
-0.00542263 0.00612368 -0.00129844
-0.00309821 -0.05330125 -0.00249184
0.00041493 -0.01254517 -0.00387769
-0.00421949 0.05175267 0.00274994
-0.00057534 0.03058934 -0.00382748
0.00066200 0.06890248 0.00045595
0.01132874 -0.04867508 -0.00348728
-0.00177814 -0.05410792 -0.00437078
0.00461600 -0.04843505 -0.00472266
-0.00481400 0.05108208 0.00222670
-0.00650700 -0.05736718 -0.00153997
-0.00333132 -0.04686026 -0.00363688
0.00428920 -0.00626898 0.00261589
-0.00575864 -0.00213561 0.00067459
-0.00924829 -0.05144049 -0.00495264
0.00604225 -0.04941418 -0.00515476
-0.01122944 -0.04363176 -0.00595631
0.00122132 -0.01669605 0.00253809
0.00458505 -0.02433609 -0.00304362
0.00478312 -0.00455279 -0.00198911
-0.00093629 0.05820019 0.00410320
-0.00835059 -0.07048522 0.00154909
-0.00383262 0.00533703 0.00294685
-0.00741109 -0.06001382 -0.00278657
0.00185692 -0.05005767 -0.00520030
0.00649345 -0.05753599 -0.00240596
-0.00086884 0.05598511 0.00410875
-0.00135841 -0.06419485 -0.00105228
-0.00391879 0.02949470 -0.00265012
-0.00292206 0.06453488 0.00351644
-0.00015170 -0.03829476 -0.00615035
0.01123670 -0.03867709 -0.00415961
-0.00435254 0.01277695 -0.00235790
-0.00388056 0.04176038 -0.00266072
-0.00428067 -0.01235702 0.00262604
-0.00023961 0.04236880 -0.00384380
-0.00344880 0.06740446 0.00325579
0.00296930 -0.03190798 -0.00508138
0.00237911 -0.06556740 -0.00071902
0.00840256 -0.03797310 -0.00415390
-0.00033744 -0.03231888 -0.00519196
0.00813049 -0.03611397 -0.00611769
0.00252255 -0.03118723 -0.00281625
-0.00392213 -0.05466060 -0.00423078
-0.00382461 -0.04245975 -0.00402110
0.00120193 -0.04537236 -0.00582248
-0.00111726 0.06856513 -0.00238554
-0.00381593 0.07256450 -0.00068792
-0.00270852 -0.04908455 -0.00536198
0.00168698 -0.03495784 -0.00383102
0.00055653 -0.04945685 -0.00371461
-0.00896571 -0.07542985 0.00438144
0.00050399 -0.04008897 -0.00414127
0.00381690 -0.04502400 -0.00384249
-0.00429666 0.06566522 0.00269734
0.00074961 0.05957921 0.00412570
-0.00636032 -0.02897532 -0.00429214
-0.00690019 -0.06032199 -0.00057363
-0.00609295 -0.03608773 -0.00611560
-0.00482570 -0.03570640 -0.00610327
-0.00623013 -0.03403351 -0.00358226
0.00750511 -0.05907289 -0.00098763
-0.00403615 0.01844325 -0.00258851
0.00674211 -0.06205952 -0.00111765
-0.00745668 -0.02992704 -0.00454827
0.00234343 -0.01137645 0.00367396
-0.00504472 0.02375524 0.00199385
-0.00517858 0.04113646 0.00185056
0.00045370 0.07153588 -0.00378849
0.00460886 0.04194662 0.00238770
0.00399464 -0.05839867 -0.00191226
0.00574803 -0.00161816 -0.00048939
-0.00364709 0.06138190 0.00312468
-0.00192707 -0.00969472 -0.00362325
0.00167932 -0.04106490 -0.00410880
0.00028381 -0.02515344 -0.00326359
-0.00479039 -0.03091235 -0.00274227
-0.00425224 0.05027468 0.00271954
-0.00350554 -0.05010090 -0.00519486
-0.00323302 -0.06551226 -0.00071570
0.00094775 0.03750433 -0.00379009
-0.00575864 -0.01142125 0.00022354
-0.00240297 -0.02735709 -0.00178547
0.00041875 -0.00164731 -0.00386547
-0.00256967 -0.07223086 0.00246189
-0.00263232 0.00277590 -0.00336097
0.00118411 0.06370098 -0.00372338
-0.00358735 0.07256393 -0.00016740
-0.00205790 -0.06029705 -0.00058198
-0.00439821 -0.01493064 0.00251993
0.00512849 0.04068638 -0.00160441
-0.00397807 0.04586746 -0.00259500
0.00267769 0.00054801 -0.00333973
0.00405364 -0.04115885 -0.00610937
0.00667088 -0.05012197 -0.00316379
-0.00364889 0.05516058 0.00311674
-0.00089411 0.01269405 -0.00382008
0.00960299 -0.04855844 -0.00541067
0.00761563 -0.03662940 -0.00613192
0.00016923 0.06905337 -0.00287319
0.01124616 -0.03775993 -0.00461272
-0.00443387 0.03233940 -0.00226503
0.01048710 -0.04830981 -0.00345228
-0.00129523 0.01507372 0.00398728
-0.00533136 0.06759985 0.00169425
-0.00400525 -0.07225540 0.00330954
0.00399464 -0.06809159 0.00064926
-0.01045165 -0.05600579 -0.00394915
