# .PCD v0.7 - Point Cloud Data file format
VERSION 0.7
FIELDS x y z
SIZE 4 4 4
TYPE F F F
COUNT 1 1 1
WIDTH 1000
HEIGHT 1
VIEWPOINT 0 0 0 1 0 0 0
POINTS 1000
DATA ascii
-0.05535473 0.00954724 -0.00159984
0.02732587 -0.00377955 0.00168579
-0.05494502 0.00351835 0.00017064
0.05229353 0.00352957 0.00215048
-0.04805006 0.01041534 -0.00145619
-0.02852032 -0.00482457 -0.00537600
-0.04899203 -0.00184981 -0.00323969
0.07880753 0.00114164 0.00283907
0.02428777 0.00327970 0.00082828
0.02275962 0.00383362 0.00164402
0.06546835 0.00086721 0.00084977
-0.04627588 0.00582584 -0.00689158
-0.02189341 -0.00858451 -0.00287053
-0.01007145 -0.00071154 0.00204902
-0.04070745 -0.00794307 -0.00453789
0.01441280 0.00382858 0.00419670
-0.02918474 0.00304900 -0.00571410
-0.05213500 0.00679025 -0.00081579
-0.02882603 0.01542872 -0.00484886
0.00452303 0.00063486 0.00619558
-0.05335875 0.01350172 -0.00067133
-0.04460950 0.00332498 -0.00776716
-0.03540137 0.01579978 -0.00302231
-0.04586266 -0.01548911 -0.00202928
-0.05820263 0.00917989 0.00019444
-0.03861735 -0.01465056 -0.00171580
0.04264178 0.00150125 0.00021904
0.08119126 0.00208831 0.00185606
0.08041139 0.00366447 0.00337882
0.08317667 0.00358374 0.00709338
-0.01856648 0.00269562 -0.00255486
0.02564265 -0.00009368 0.00699568
-0.03527329 -0.00755574 -0.00828976
0.05566045 0.00111637 0.00792034
0.08344518 -0.00039750 0.00902397
0.00600299 -0.00194091 -0.00089007
-0.03718929 0.01341030 -0.00600513
0.07918251 -0.00062467 0.00342926
-0.04571951 0.00806396 -0.00323120
0.07832007 -0.00223535 0.00185379
0.03134857 -0.00402081 0.00424462
-0.05779365 -0.01126733 0.00084419
-0.04326986 -0.00660471 -0.00751663
0.05583494 0.00330194 0.00651698
0.03089807 -0.00204685 0.00667279
-0.03594324 0.00657275 -0.00849424
-0.03634015 -0.01085108 -0.00398475
0.08231133 0.00166405 0.00332780
0.05243020 -0.00072704 0.00788522
0.01842977 0.00045906 0.00671353
-0.00448528 -0.00010248 0.00056685
-0.00088739 -0.00135068 0.00583314
0.03588238 -0.00362732 0.00534216
0.03109178 -0.00289197 0.00607149
0.03478490 -0.00092770 -0.00021569
0.06005818 0.00321333 0.00676949
-0.04683879 0.00749147 -0.00627004
-0.02529910 -0.01197460 -0.00262736
-0.01418826 -0.00286612 -0.00120976
-0.05086671 -0.00970772 -0.00047236
0.08107521 -0.00083518 0.00141048
-0.02436287 0.01193472 -0.00371638
-0.00961873 -0.00171199 0.00228396
-0.02868069 0.01093776 -0.00366935
-0.04702479 -0.00650306 -0.00648346
-0.02750855 -0.01472637 -0.00472713
-0.02745149 -0.01307274 -0.00585320
-0.02183853 -0.01030805 -0.00560331
-0.01228823 -0.00103790 -0.00251151
-0.04004206 -0.00765253 -0.00782543
0.02378987 -0.00184338 -0.00031171
-0.04703243 0.01472242 -0.00315448
0.00162299 0.00373057 0.00068750
-0.02224919 0.00877796 -0.00293023
0.01516292 0.00341730 0.00493685
0.01884727 -0.00291976 0.00561107
0.05097401 0.00323764 0.00641824
-0.04387083 -0.01485748 -0.00095344
-0.05922536 0.00878064 0.00366380
-0.01987902 -0.00444359 -0.00617830
-0.02838329 -0.00680174 -0.00804999
-0.03618402 -0.01362914 -0.00261942
0.04169613 0.00328753 0.00603059
-0.05467031 0.00613323 0.00050946
0.04170641 -0.00366901 0.00200487
0.08297744 0.00312271 0.00768947
-0.00291334 -0.00050999 0.00378440
-0.05473128 -0.00917428 0.00159199
-0.04649091 0.00058902 -0.00740010
0.05316572 0.00235214 0.00727508
0.07617437 0.00399691 0.00598281
-0.04334747 0.01040422 -0.00303345
-0.02590304 -0.01126941 -0.00629286
-0.04831565 0.00387358 -0.00329564
-0.05584512 -0.00282241 0.00069455
-0.03479477 0.00977180 -0.00450221
0.03563010 -0.00132584 0.00714128
-0.06429710 -0.00211038 0.00638284
0.02851580 0.00401997 0.00277573
-0.00586332 -0.00329094 0.00231817
0.01600645 -0.00169588 0.00630004
-0.02526985 0.01310341 -0.00440827
-0.06440437 -0.00495984 0.00468998
-0.00659438 -0.00052625 0.00320398
-0.04439601 0.00258971 -0.00477742
-0.03428392 -0.00912466 -0.00472812
-0.04350262 -0.01364188 -0.00132618
0.07412288 0.00048573 0.00869600
-0.06037089 -0.00897984 0.00278261
-0.04161485 -0.01567659 -0.00410830
-0.04721894 0.00879943 -0.00576932
-0.04963900 0.00361467 -0.00603361
0.06619078 -0.00125523 0.00825316
0.07852508 -0.00402081 0.00525386
-0.01963645 0.00666611 -0.00576390
0.06960794 -0.00309627 0.00725480
-0.02183586 -0.00814364 -0.00619004
0.08060320 0.00078483 0.00887292
-0.04892616 0.00725302 -0.00558651
-0.03066273 -0.00068709 -0.00605049
-0.04886669 -0.00357641 -0.00635463
-0.00896985 0.00252890 -0.00063094
0.07816011 0.00145923 0.00340027
0.05240517 0.00125003 0.00776817
-0.02810864 -0.00932357 -0.00418770
-0.03283931 0.01350933 -0.00609484
0.01885311 -0.00100372 -0.00076616
-0.03691215 0.00257226 -0.00606568
0.07440712 0.00281643 0.00213456
0.01814525 0.00169527 0.00637897
-0.00878225 0.00312607 0.00181577
-0.06211773 0.00516143 0.00242149
-0.04637220 0.00985190 -0.00566039
-0.04348403 -0.00173508 -0.00510417
-0.05737215 0.00091099 -0.00200675
-0.05286841 -0.00110281 -0.00134437
-0.03081841 -0.01268038 -0.00311422
-0.03273378 -0.00826824 -0.00807697
-0.06416590 0.00274580 0.00625848
0.01416884 0.00341250 0.00490702
-0.01973779 -0.00115224 -0.00637419
-0.02876791 -0.00856593 -0.00453209
-0.02331180 0.00326491 -0.00748000
-0.05183121 0.00138095 -0.00524785
-0.05260884 -0.00206863 -0.00481170
0.02289278 0.00206539 0.00636467
-0.03958033 -0.00388291 -0.00864397
0.05770727 -0.00169953 0.00083474
-0.04070142 -0.01564721 -0.00430653
-0.04570348 -0.01577511 -0.00296774
-0.04612122 -0.01216961 -0.00133522
-0.05551099 0.00957713 0.00228629
0.06946362 0.00401997 0.00402160
0.05823212 0.00321288 0.00195498
0.06546119 -0.00400819 0.00360104
-0.00307412 -0.00320702 -0.00023108
-0.01324245 0.00138200 0.00042652
0.01417838 -0.00280726 0.00554538
0.06082597 -0.00329483 0.00670191
-0.03558509 0.00611725 -0.00863245
0.05039399 -0.00402081 0.00318371
-0.03769120 0.00308805 -0.00594092
0.06107857 -0.00211274 0.00770946
-0.04689268 0.00250045 -0.00717325
-0.00274063 0.00236365 0.00404495
0.06713684 -0.00250048 0.00161490
-0.05415125 -0.00676490 -0.00318814
-0.04835146 0.01405753 -0.00024760
0.05751729 0.00272808 0.00714897
-0.06145133 -0.00721580 0.00459238
0.06760868 -0.00224723 0.00147962
0.03175233 0.00239244 0.00029478
-0.05414231 0.01286572 0.00000233
-0.00196129 -0.00139190 0.00401891
-0.04754289 -0.01145708 -0.00464887
-0.00811081 -0.00210781 -0.00032451
0.04831166 0.00013853 0.00779100
-0.03004952 -0.01425488 -0.00561363
0.03147582 -0.00188415 -0.00001680
0.05968691 0.00239746 0.00129187
0.07315432 0.00354521 0.00291906
-0.03835394 -0.00653386 -0.00834538
-0.03632412 0.01360644 -0.00596709
-0.03063167 -0.00435056 -0.00573361
0.00341825 0.00043519 0.00617758
-0.05564180 0.00723158 0.00150940
-0.04782154 0.01301965 -0.00020116
0.08064871 -0.00090800 0.00141017
0.03674646 0.00364322 0.00534575
-0.03627814 -0.00543479 -0.00567737
-0.03103045 0.00754905 -0.00509299
0.02870966 0.00401997 0.00265150
-0.04801995 0.01452285 -0.00293907
0.00497378 0.00209799 0.00570820
0.04120993 0.00062954 -0.00004479
-0.02847791 -0.00870348 -0.00760903
-0.06109685 -0.00275785 0.00102968
-0.04568276 -0.00993528 -0.00254934
-0.03986350 0.01151407 -0.00656511
-0.05910964 0.00646436 0.00008541
-0.05021802 -0.00958131 -0.00429280
-0.03992938 -0.00699037 -0.00801123
-0.05516226 -0.01005304 -0.00151303
-0.00130047 -0.00059961 -0.00156930
-0.02443834 0.00946467 -0.00659522
0.07180473 0.00107993 0.00850467
-0.06112843 -0.00002944 0.00089936
-0.03970050 0.00218601 -0.00581182
-0.04182939 -0.00847525 -0.00734308
-0.02765010 -0.01333505 -0.00576445
-0.03500792 -0.00342992 -0.00905712
-0.02738582 -0.01482223 -0.00499063
-0.05136333 -0.01348018 -0.00202305
-0.00698211 -0.00267029 0.00327573
0.05882909 -0.00317066 0.00192926
-0.05326027 -0.01277847 0.00040209
-0.01115085 0.00175514 0.00160830
-0.03139870 -0.00663975 -0.00535976
0.03205760 -0.00341615 0.00553150
-0.02891694 -0.01482535 -0.00378682
-0.04813664 -0.00210503 -0.00357719
0.08172028 0.00307809 0.00262827
0.06566271 -0.00168107 0.00807533
0.05837460 0.00401997 0.00448273
0.02695816 -0.00399067 0.00425127
-0.02813238 0.00949840 -0.00731464
0.05171015 -0.00244697 0.00103004
-0.02219372 -0.00986306 -0.00403124
0.04480003 0.00246957 0.00080909
0.00716870 0.00139210 -0.00107953
-0.03387090 -0.00215547 -0.00914104
-0.05082289 -0.00948245 -0.00058057
0.04055183 0.00401997 0.00311107
-0.02139453 -0.00033439 -0.00387200
0.01365725 -0.00365258 0.00098051
-0.02967657 0.00530082 -0.00848784
-0.02326393 -0.00867479 -0.00648755
-0.02542481 -0.00667600 -0.00438421
0.03766667 -0.00402081 0.00453086
0.07908485 -0.00089705 0.00161128
0.01221988 0.00182503 -0.00071824
0.07112187 0.00063729 0.00101286
-0.03785871 -0.00507959 -0.00865555
0.03580470 -0.00192220 0.00015931
-0.03945068 0.00554660 -0.00534939
-0.03660915 0.01108114 -0.00707759
-0.01618679 -0.00230002 -0.00134882
-0.03940365 0.01056970 -0.00698444
0.01436435 0.00250915 -0.00024800
0.02332593 -0.00084448 0.00683329
-0.04203260 -0.00771143 -0.00750252
0.04347035 -0.00341803 0.00593525
0.03089782 -0.00241194 0.00644137
0.02075059 -0.00294164 0.00565925
-0.02028008 -0.00723269 -0.00449929
0.05660388 -0.00069870 0.00051186
-0.02339496 -0.00015559 -0.00766660
-0.03424503 0.01027166 -0.00747010
-0.05826283 -0.00609587 -0.00069695
-0.04673808 -0.00251603 -0.00405569
-0.05104034 0.01311020 -0.00236084
0.00581044 0.00294182 -0.00019399
-0.00017196 0.00226001 0.00543099
0.06417621 -0.00309600 0.00706188
-0.04500645 0.00212237 -0.00466172
-0.01399583 -0.00238603 -0.00000391
-0.04100055 -0.00134102 -0.00564522
-0.01774711 0.00255234 -0.00547535
0.07314516 -0.00256535 0.00784476
0.03978860 -0.00061380 0.00744761
-0.04139288 0.01137966 -0.00305841
0.07276067 0.00041142 0.00104173
-0.04231138 0.01439673 -0.00471695
-0.04249620 0.00882229 -0.00709436
-0.02607871 0.00308978 -0.00513016
-0.04343024 0.01075676 -0.00285006
-0.05629422 0.00429805 0.00123540
-0.04796337 -0.01484534 -0.00133357
-0.04220818 -0.01286754 -0.00209732
0.03504853 0.00262109 0.00643869
0.01013347 0.00388478 0.00132348
0.00711507 0.00401997 0.00189307
-0.05037886 -0.01265398 0.00075704
-0.03569159 -0.00242279 -0.00613686
-0.03861920 0.00756135 -0.00806508
-0.04360659 -0.00657152 -0.00744527
-0.01649804 -0.00323801 -0.00251260
-0.04836694 -0.01383661 -0.00315482
-0.04765980 0.01205108 -0.00081606
0.01288904 0.00029348 -0.00108837
0.01022357 0.00401997 0.00173355
-0.06060886 -0.00118791 0.00050068
-0.04071800 0.01629298 -0.00309214
0.03235004 0.00033692 0.00721620
0.05115624 -0.00105034 0.00777443
-0.04548373 0.00614866 -0.00385745
0.01476825 -0.00350478 0.00078201
-0.05640967 0.00415736 -0.00232897
-0.03477063 -0.00612093 -0.00864528
-0.04160617 -0.00241110 -0.00851122
0.01973262 0.00317638 0.00054108
-0.05527097 -0.00595759 -0.00277390
-0.02046001 -0.00249439 -0.00659919
-0.03537092 -0.01211012 -0.00346244
0.03754961 0.00127981 0.00722853
0.07106843 0.00156727 0.00125744
0.04081124 0.00317076 0.00128419
0.07598590 0.00313617 0.00742520
-0.05975190 -0.00082416 -0.00020522
0.06329752 0.00380844 0.00302289
0.00004929 0.00389440 0.00098891
-0.04461565 0.01497881 -0.00117454
-0.02438364 0.00188182 -0.00480389
-0.02570114 0.00964057 -0.00361730
-0.04642530 -0.00333919 -0.00406119
0.06302140 -0.00208948 0.00779369
0.03504791 -0.00402081 0.00429847
0.05844596 0.00377398 0.00278244
0.03640281 0.00390187 0.00230103
0.07930276 -0.00398231 0.00403026
0.02282552 0.00384134 0.00446483
-0.04226290 -0.01041167 -0.00656085
-0.02231786 -0.00059581 -0.00419249
0.03509135 -0.00399239 0.00453631
0.06066189 0.00027032 0.00823301
0.04253186 0.00012064 -0.00005230
0.05191352 0.00401997 0.00476904
-0.04389388 0.01480120 -0.00409583
-0.04478790 0.01164907 -0.00205551
-0.02306599 -0.00526666 -0.00713975
-0.03559198 -0.00420580 -0.00593228
0.04896969 -0.00386828 0.00267255
-0.05355435 0.00283816 -0.00424771
-0.02771235 0.00566434 -0.00817287
0.04065524 0.00126681 0.00734400
-0.02385349 -0.01232384 -0.00501323
0.05448452 0.00236144 0.00731660
0.06350610 -0.00069919 0.00075629
-0.03426697 -0.01091517 -0.00403947
-0.04858968 -0.01402183 -0.00296081
0.05165574 0.00335230 0.00188988
0.04161793 -0.00220163 0.00695937
0.02432759 0.00311540 0.00063071
-0.05675547 -0.00001693 0.00117755
0.03677015 0.00401997 0.00373672
-0.03762019 0.01498204 -0.00163741
-0.02219268 -0.00852784 -0.00298547
-0.00728765 -0.00139812 0.00304395
-0.05867542 0.00326602 -0.00088989
-0.05258217 -0.00662765 -0.00061739
-0.02999406 -0.00916112 -0.00449422
0.01095900 -0.00217428 -0.00057816
-0.00924272 0.00249635 0.00250981
-0.04262811 0.00946213 -0.00683030
-0.04156923 -0.01278447 -0.00570416
-0.01820918 0.00346036 -0.00564007
0.01206297 0.00333798 0.00046395
-0.01946158 0.00474442 -0.00297974
-0.01671517 -0.00137595 -0.00168617
0.07138065 -0.00278749 0.00759810
-0.02740616 -0.00768681 -0.00456560
-0.05627997 0.00678742 0.00183899
-0.01954705 -0.00142546 -0.00307647
0.08253259 0.00120981 0.00415353
-0.06132202 -0.00130210 0.00530249
0.03015579 -0.00292636 0.00600750
-0.03693291 -0.00999306 -0.00430501
-0.02109744 0.00864134 -0.00583554
-0.00903051 -0.00159098 -0.00074262
0.06943029 -0.00237910 0.00162102
-0.04079517 -0.00956375 -0.00394926
-0.05612294 0.01014038 0.00296775
0.02801757 0.00399039 0.00428543
-0.04618448 0.01136243 -0.00172614
-0.04193568 0.00834863 -0.00735482
-0.05266592 0.00047988 -0.00486476
-0.05994184 -0.00927217 0.00163980
0.05455997 0.00327710 0.00190213
-0.02596903 -0.00986989 -0.00361046
-0.02369166 0.00222066 -0.00457761
-0.04973386 -0.00549289 -0.00236512
0.03772995 0.00377271 0.00204330
-0.03999512 -0.01208456 -0.00629073
-0.04202021 0.00761476 -0.00437081
-0.04042865 -0.00633220 -0.00810256
0.04017482 0.00373850 0.00531431
0.05969695 -0.00264103 0.00731316
0.04243391 -0.00397935 0.00271134
0.05548565 -0.00395698 0.00312103
0.00129332 0.00181953 -0.00110941
-0.03576907 -0.00005543 -0.00624944
-0.05350915 -0.00186558 -0.00433060
0.01441020 0.00401997 0.00206429
-0.05473344 -0.00532649 0.00037065
-0.02650487 0.00744864 -0.00754438
0.02882919 0.00401997 0.00352345
0.08217135 -0.00223127 0.00280539
-0.02452406 0.00924935 -0.00668890
-0.06433396 0.00442607 0.00525963
-0.02258287 0.00972484 -0.00319660
-0.05463079 0.00064415 -0.00378185
0.00016528 0.00384282 0.00365502
0.07986310 -0.00323366 0.00745326
-0.05501701 -0.01218520 0.00064377
-0.02280680 -0.00841213 -0.00641320
-0.02640864 -0.00589358 -0.00479668
0.03617634 0.00285602 0.00628315
0.02965567 -0.00365114 0.00508036
-0.02203904 0.00720001 -0.00646271
0.03813776 -0.00383237 0.00504713
-0.02626645 0.00573423 -0.00787422
-0.03962205 -0.00856512 -0.00450571
0.02598801 0.00308613 0.00065432
0.07298744 -0.00402081 0.00402815
-0.00080997 0.00401997 0.00165854
-0.01129491 0.00306892 -0.00081629
0.03718554 0.00209422 0.00685641
-0.03455874 -0.00207858 -0.00916025
-0.05983994 -0.00622244 0.00463912
-0.03092218 0.01453269 -0.00556765
-0.04124378 -0.00276089 -0.00854488
-0.00006836 0.00268981 -0.00062805
-0.04541701 0.00911791 -0.00626731
0.06253173 0.00118864 0.00082660
0.06120206 0.00143678 0.00801432
0.07255738 -0.00360769 0.00300371
-0.02891817 -0.01146497 -0.00672870
0.03051760 0.00352208 0.00136310
-0.05337596 -0.01019648 -0.00248127
-0.02578256 0.00992608 -0.00354672
-0.03547023 0.01018300 -0.00747553
-0.06234014 -0.00231205 0.00218909
0.00031338 -0.00282290 0.00503814
-0.05651111 0.00207902 -0.00251298
0.06133828 -0.00248249 0.00139362
-0.05414102 0.00722736 0.00050088
0.08274516 0.00163161 0.00494685
0.04322978 0.00115243 0.00746843
0.07862445 0.00168505 0.00157958
-0.05265307 -0.00063144 -0.00486469
-0.02737834 0.01241954 -0.00613623
0.04701301 0.00311200 0.00642230
0.00797580 -0.00402081 0.00277921
-0.00421240 0.00184531 0.00376054
-0.03127982 0.00455469 -0.00877135
-0.04937927 -0.00241446 -0.00301601
0.06787552 0.00167168 0.00816378
-0.02995861 -0.00218934 -0.00591614
-0.04518319 0.00246809 -0.00769159
0.01077856 0.00015320 0.00645406
0.07639688 0.00065179 0.00546185
0.06588711 -0.00378335 0.00614589
-0.03142982 -0.00821210 -0.00494433
0.01286490 0.00313513 0.00024680
0.04933083 -0.00109405 0.00769664
0.00107097 0.00050994 -0.00148560
-0.03451909 -0.00085794 -0.00921617
-0.01510665 -0.00093844 -0.00422766
-0.04210819 0.00941499 -0.00373356
-0.02568038 0.00073077 -0.00824071
-0.05918764 0.00094911 -0.00064714
-0.04966230 -0.00745638 -0.00187287
0.03446349 -0.00402081 0.00389384
0.01985526 0.00401997 0.00283417
-0.04607957 -0.01451849 -0.00360089
0.01338866 -0.00328816 0.00044823
0.05268733 0.00369584 0.00582815
0.07520567 -0.00073724 0.00869844
-0.03641007 -0.00875629 -0.00478637
-0.04641063 -0.00595889 -0.00682691
-0.05977060 -0.00014340 -0.00022898
-0.06166894 0.00191257 0.00571167
0.05458933 -0.00024042 0.00802128
-0.00474885 -0.00330382 0.00280512
-0.05708391 -0.00878073 0.00314317
0.03355928 -0.00320709 0.00583809
0.01190613 0.00395615 0.00156603
-0.03893177 0.01304295 -0.00598813
-0.03527047 -0.01342943 -0.00612177
0.04029582 0.00132643 0.00007933
-0.02727355 -0.01049162 -0.00362712
-0.03093124 -0.01474512 -0.00543886
-0.05163511 0.00188953 -0.00531110
-0.05267440 0.00999338 0.00062557
-0.04726861 0.00956875 -0.00212203
-0.06278731 0.00061643 0.00251728
0.00476218 -0.00399225 0.00140263
-0.04683989 0.01187854 -0.00122731
0.01545620 -0.00402081 0.00293811
0.01115070 -0.00169316 -0.00081847
0.02616646 -0.00291882 0.00050576
0.03068757 0.00313203 0.00087711
-0.03651596 0.01406325 -0.00231249
0.04850814 -0.00033727 0.00017531
-0.02844722 0.00153553 -0.00572798
0.00054606 -0.00006724 -0.00153630
-0.03445911 0.00784404 -0.00514945
0.04700054 0.00253274 0.00092843
0.07908386 0.00054360 0.00712530
0.01188644 -0.00377403 0.00112301
0.01120097 0.00401997 0.00343284
0.06682902 -0.00079965 0.00088798
-0.06176860 -0.00739620 0.00262539
-0.04169211 0.00062380 -0.00554712
-0.02157637 0.00720735 -0.00632584
0.04384046 -0.00157584 0.00734410
-0.03701414 -0.00001769 -0.00916469
-0.03738380 0.00657798 -0.00534279
-0.05843975 -0.00733505 -0.00018744
-0.05404781 -0.00791933 -0.00292095
-0.05394578 -0.00810860 -0.00292363
-0.05237708 -0.01354207 -0.00042912
-0.05848700 -0.00781464 -0.00000720
-0.05780132 -0.00942467 0.00345472
-0.00474072 -0.00315565 0.00356957
-0.04634295 -0.00712504 -0.00653892
-0.00653762 -0.00009599 0.00008936
0.06068673 -0.00091952 0.00069380
-0.03063005 0.00864313 -0.00472916
-0.05745839 0.01076468 0.00170941
0.08235007 0.00018616 0.00347236
-0.04193479 -0.00228185 -0.00541922
0.07231302 -0.00308952 0.00735921
-0.04508380 0.00447742 -0.00745922
-0.01578414 -0.00302307 -0.00194824
0.04471208 0.00066909 0.00761810
-0.05562518 0.00344537 -0.00297458
0.03576020 -0.00226139 0.00671215
0.04704706 -0.00376607 0.00235449
-0.03932641 0.00819541 -0.00779313
0.04725839 0.00322331 0.00630259
-0.04125569 -0.00422478 -0.00833716
0.00307404 -0.00342015 0.00449551
0.06853457 -0.00191519 0.00807143
0.01426867 0.00208947 -0.00052404
0.04465462 0.00019520 0.00002649
0.03729818 0.00344267 0.00148854
-0.02368970 0.00403788 -0.00439424
-0.04960802 0.01494280 -0.00178640
0.05617027 -0.00235010 0.00738065
0.05482790 -0.00224427 0.00102319
0.01671546 0.00398160 0.00180114
-0.04934306 0.00930542 -0.00135911
-0.04157244 0.00331103 -0.00844328
0.03598838 0.00401368 0.00451213
0.00755187 0.00401997 0.00310805
0.03409056 0.00364441 0.00169698
0.05898816 -0.00044025 0.00055470
-0.03439257 0.01522733 -0.00232638
-0.02769909 0.01288653 -0.00597297
-0.03045001 -0.01233770 -0.00325256
-0.06202646 0.00481856 0.00653951
-0.04194003 0.00286394 -0.00843214
-0.04058953 -0.01267407 -0.00591416
0.02284792 0.00401997 0.00219161
-0.02405721 0.01270421 -0.00533430
-0.02591094 -0.00707503 -0.00751247
0.05469688 0.00237612 0.00110047
-0.00574292 0.00100029 0.00034333
-0.04043232 -0.00447300 -0.00540824
-0.06276373 -0.00088571 0.00250917
-0.03729220 -0.00466691 -0.00875225
-0.04847061 -0.00430491 -0.00638358
-0.04191200 -0.00687431 -0.00460009
0.04493112 0.00043305 0.00766151
-0.03947559 0.01501474 -0.00135154
0.07678878 -0.00118323 0.00655395
-0.02555819 0.01158993 -0.00284358
-0.00085675 -0.00267569 0.00512791
-0.04114139 -0.01621996 -0.00296112
-0.01180114 -0.00087697 -0.00222114
-0.03359580 -0.00282456 -0.00910364
-0.04008336 0.00418670 -0.00552324
-0.05197227 -0.00746609 -0.00418231
-0.06104011 -0.00184796 0.00503732
-0.02457561 -0.00174016 -0.00794319
0.08140256 0.00049176 0.00137037
-0.00697334 0.00066457 -0.00002476
0.07523478 0.00005069 0.00876235
-0.04709030 0.00711443 -0.00303161
-0.04646734 0.00737880 -0.00642758
-0.04852553 -0.00864812 -0.00196607
-0.00091017 -0.00328065 0.00452269
-0.04828891 -0.00424028 -0.00324555
-0.04418151 -0.00667662 -0.00409400
0.00468024 0.00224786 0.00561067
-0.03566747 0.00965649 -0.00450748
0.01926736 -0.00385507 0.00158357
-0.04046174 -0.01503318 -0.00471494
-0.04250612 0.01505870 -0.00122471
0.05247960 0.00295435 0.00678128
-0.01715937 0.00002064 -0.00529196
-0.05106966 -0.01303284 0.00066803
0.03801992 -0.00054762 0.00739178
0.07832260 0.00136347 0.00666860
-0.06131239 -0.00164610 0.00116985
0.05536206 -0.00295938 0.00157822
-0.05311959 0.00058624 -0.00461091
0.01923404 -0.00395937 0.00405519
-0.01347354 0.00040324 -0.00326128
-0.04201632 0.01422242 -0.00134619
0.05509729 -0.00102998 0.00051858
0.03888547 -0.00231907 0.00678588
0.02206508 0.00387895 0.00173329
0.07042525 0.00218336 0.00798719
-0.05982980 -0.00939058 0.00248776
-0.05981402 -0.00412609 0.00412413
0.02361797 0.00301302 0.00050309
-0.03993361 -0.01224697 -0.00289847
-0.03931893 0.01059737 -0.00377170
-0.03120643 0.01211788 -0.00670812
-0.02775025 0.00012754 -0.00565100
0.03819412 -0.00402081 0.00277028
0.05987480 -0.00300464 0.00699493
-0.01995193 0.00597002 -0.00600379
-0.02398519 0.01161963 -0.00576444
-0.01429692 -0.00123064 -0.00023648
-0.05506287 0.01281250 -0.00033462
0.03563323 0.00097129 -0.00018594
0.01682819 -0.00177321 0.00629465
-0.03423900 -0.00521656 -0.00878515
0.03272643 -0.00220418 0.00664138
-0.02396996 -0.00772339 -0.00690832
-0.05199674 0.00785044 -0.00057627
0.05900953 -0.00389006 0.00308294
0.04099417 -0.00336261 0.00151626
0.04087410 0.00401997 0.00362854
-0.03628095 -0.00780502 -0.00816275
-0.04988404 0.00134905 -0.00286988
-0.03506589 -0.00440264 -0.00591661
-0.02454079 0.00239509 -0.00790070
-0.05803197 0.00935760 0.00344025
0.06987806 0.00280804 0.00752214
0.05460030 -0.00240100 0.00110616
0.07746520 -0.00148723 0.00799974
0.02194239 0.00401997 0.00378378
-0.01529255 0.00234833 -0.00082817
-0.02147348 -0.00909640 -0.00428639
0.05166604 0.00291373 0.00678617
-0.02695613 -0.01424547 -0.00443886
-0.05963030 0.00189057 0.00366441
0.07811962 -0.00144246 0.00643033
-0.02204188 -0.00906645 -0.00602735
0.03707748 -0.00242768 0.00665100
-0.05798606 0.00012143 0.00215090
-0.03685798 0.01417529 -0.00221094
-0.03651278 -0.01549117 -0.00494379
-0.01521327 -0.00100654 -0.00428976
-0.03556117 -0.00145764 -0.00918981
0.00204976 -0.00388330 0.00103998
-0.01318718 0.00206746 -0.00304173
-0.01506041 -0.00091620 -0.00420044
-0.04728009 0.01522076 -0.00276698
-0.05666491 0.00652460 -0.00168631
0.06141469 -0.00010325 0.00062481
-0.04876037 0.00918036 -0.00166132
0.01299826 -0.00027729 -0.00108241
-0.00023078 0.00176829 -0.00118657
-0.02227000 -0.01078639 -0.00522456
-0.04146652 -0.00818981 -0.00431618
0.08327208 0.00244419 0.00691336
-0.00212990 -0.00400384 0.00118575
-0.00004856 -0.00167704 0.00573726
-0.05038028 -0.00334174 -0.00572936
0.07445803 -0.00402081 0.00551080
-0.02722387 0.00490869 -0.00512787
0.05058648 -0.00097222 0.00777429
0.07608801 0.00389060 0.00368456
-0.03800032 0.01656424 -0.00416223
-0.03449183 0.00591794 -0.00563888
-0.02797550 0.00705687 -0.00793034
-0.02031801 0.00643056 -0.00360051
-0.01371545 -0.00288084 -0.00330624
-0.02333066 -0.00291412 -0.00440149
-0.03302750 0.00824890 -0.00501560
-0.05994972 -0.00258207 0.00005293
0.01313349 -0.00347805 0.00478328
-0.02228286 0.00607750 -0.00360220
-0.04751083 -0.00731902 -0.00281236
-0.00609270 0.00298573 0.00356549
-0.02557847 0.01257686 -0.00319377
-0.06176401 -0.00200545 0.00582029
-0.06512884 0.00166274 0.00581745
0.00237701 -0.00059142 0.00611900
-0.02481542 -0.00967355 -0.00660579
0.06519213 -0.00005734 0.00840084
-0.02569385 -0.01216521 -0.00262940
-0.02574675 0.00078816 -0.00825133
-0.02471280 -0.01214885 -0.00572720
0.05210075 -0.00402081 0.00355367
0.00426243 -0.00303556 -0.00016792
0.00160905 -0.00402081 0.00163125
-0.04727187 -0.01022758 -0.00521111
-0.03948394 -0.01156743 -0.00660914
0.04785527 0.00121411 0.00761643
-0.02757786 0.00179480 -0.00556001
-0.05739281 -0.00638303 -0.00123876
-0.00983617 0.00055373 0.00214657
0.00377725 -0.00396971 0.00347926
0.02455264 -0.00355057 0.00506884
-0.05078397 0.00395063 -0.00548542
0.01414592 0.00256974 0.00573780
-0.04800648 -0.00106746 -0.00367481
0.02039987 0.00344856 0.00507761
-0.03290616 -0.01406402 -0.00584195
0.07596960 -0.00402081 0.00455474
-0.06373805 0.00531087 0.00404747
-0.03581213 -0.00597521 -0.00864830
0.00897036 -0.00284764 -0.00016530
0.07301552 0.00017942 0.00867885
-0.00752864 -0.00318178 0.00224521
-0.05955115 0.00111769 -0.00034651
-0.00456174 0.00363106 0.00124717
-0.01256183 -0.00111884 0.00084159
-0.04780084 0.00069408 -0.00695861
0.03431124 0.00401997 0.00436026
0.01137469 -0.00402081 0.00211997
0.02110144 0.00275781 0.00582862
0.00346796 -0.00402081 0.00295371
-0.03968600 -0.00381979 -0.00863725
0.00146811 -0.00229603 0.00546964
0.05127818 -0.00183902 0.00066441
0.04647301 0.00304549 0.00134519
0.04449740 0.00052658 0.00006094
-0.04319298 0.01435491 -0.00452345
0.05289124 0.00401997 0.00370320
-0.00822775 0.00170779 0.00279237
-0.04225151 -0.01334316 -0.00526100
-0.03339051 -0.01601046 -0.00378563
-0.01004040 -0.00283763 -0.00111788
-0.05772536 0.00489178 0.00247411
-0.03328650 -0.01344684 -0.00613632
-0.06190066 0.00674785 0.00491072
-0.04891963 0.00727174 -0.00225091
-0.03951871 -0.00977244 -0.00725977
-0.06338135 -0.00028604 0.00741410
-0.03130771 0.00378519 -0.00888423
-0.05254853 0.00451486 -0.00453472
-0.02392565 -0.00048503 -0.00471548
0.07350945 0.00290591 0.00756982
0.01882267 0.00310134 0.00041783
-0.04632521 -0.01561665 -0.00286897
-0.03945789 0.01419760 -0.00534260
0.08089727 0.00058993 0.00892412
0.01212401 -0.00402081 0.00294007
-0.00058406 -0.00291722 -0.00044726
0.06692381 -0.00395236 0.00351669
-0.05917073 -0.00573807 0.00390657
-0.01251410 -0.00294811 -0.00070628
-0.02610580 0.01026403 -0.00666718
-0.00201708 -0.00303354 0.00415931
-0.03921365 0.01654327 -0.00358576
-0.03470703 0.01563552 -0.00290249
0.05877016 -0.00282088 0.00711966
0.07850883 -0.00280363 0.00227196
0.02674416 0.00108227 0.00689521
-0.06399478 0.00487925 0.00423647
0.01095515 0.00285480 0.00538686
0.07596854 0.00365986 0.00321297
-0.04760981 -0.00422448 -0.00670808
-0.01257346 0.00194278 0.00086253
-0.00790940 0.00058983 0.00283963
0.02231133 0.00390232 0.00180084
-0.02123303 -0.00040906 -0.00380513
-0.05077527 -0.00984562 -0.00394495
-0.00270123 0.00040108 -0.00163147
0.00702037 0.00401997 0.00300749
0.06038544 -0.00166444 0.00091533
-0.01811504 0.00406582 -0.00351293
-0.04791755 -0.01043272 -0.00150176
-0.05123537 -0.00580743 -0.00495982
-0.00548717 -0.00193220 0.00047455
0.02955544 0.00156777 -0.00021672
-0.03950763 -0.00200423 -0.00885685
-0.02499542 0.01214302 -0.00319656
-0.04515191 -0.00488744 -0.00737835
0.01434605 -0.00389859 0.00151478
0.02876150 0.00162778 -0.00021809
-0.05406294 -0.00873201 0.00097364
-0.05829029 0.00650917 0.00334384
-0.03597503 0.00341610 -0.00601605
-0.03803222 -0.00382113 -0.00882785
-0.04525717 0.01571110 -0.00314876
-0.06419543 -0.00072120 0.00672564
-0.04827968 0.00683025 -0.00265771
0.01167725 -0.00168903 0.00614908
-0.04964040 -0.01491243 -0.00201287
0.00397571 -0.00071874 -0.00135620
-0.05620234 0.00560972 0.00145517
0.02141620 0.00292276 0.00034420
0.02436776 -0.00238143 0.00001923
-0.02937147 -0.00527882 -0.00846041
-0.04318282 -0.00507742 -0.00784414
-0.01197802 0.00295272 0.00043194
-0.05056428 -0.01348327 0.00011854
0.03676281 0.00217993 0.00033499
-0.03902008 0.00616924 -0.00836388
-0.06130201 -0.00714669 0.00476724
0.05442231 -0.00020877 0.00801722
0.02066445 -0.00381586 0.00446699
0.03601357 0.00290965 0.00623270
0.02997363 0.00251583 0.00634582
0.08127681 0.00033737 0.00895975
-0.02992921 -0.01516644 -0.00371791
0.08224420 -0.00202225 0.00307728
0.01833518 0.00293125 0.00558575
-0.02319037 -0.00440667 -0.00728971
0.00767382 0.00346783 0.00046506
-0.03020873 -0.00803185 -0.00795960
0.06320100 0.00073606 0.00074899
-0.00955431 -0.00169865 0.00230782
-0.05840121 -0.01076994 0.00125692
-0.04998674 -0.00970139 -0.00090964
0.01127194 -0.00402081 0.00322865
0.00225904 -0.00294620 0.00499730
-0.03259562 -0.00933481 -0.00775982
0.04253628 0.00396897 0.00485430
0.05931869 -0.00050362 0.00057282
-0.05643017 -0.01052705 0.00250136
-0.04449889 -0.01612574 -0.00284395
-0.00226418 0.00354916 0.00288853
0.08220743 0.00111621 0.00294003
-0.03656213 -0.01591355 -0.00469475
-0.04509691 0.00645081 -0.00709597
0.05594258 0.00297552 0.00161963
-0.01218227 0.00293853 0.00042181
0.02012250 -0.00107577 -0.00070715
0.04794645 -0.00384887 0.00258874
-0.01986097 -0.00047181 -0.00324942
-0.02758636 -0.01266963 -0.00274237
-0.06281569 0.00710947 0.00390767
-0.05104280 -0.01115115 0.00028643
0.00679490 0.00401997 0.00296946
0.02862539 -0.00187057 -0.00012610
-0.03785610 -0.01647274 -0.00362410
-0.04281643 0.01450816 -0.00096023
-0.00793716 -0.00317296 0.00203415
-0.01766372 0.00184150 -0.00216587
0.03832238 -0.00402081 0.00272274
0.03769346 0.00326615 0.00128881
-0.03802220 0.01484981 -0.00520048
-0.03902933 -0.01345709 -0.00577273
-0.04118118 0.00900710 -0.00729073
0.06549886 -0.00374284 0.00297024
-0.02037306 0.00725801 -0.00433525
-0.02605733 -0.00378873 -0.00810101
-0.05791420 -0.00089623 0.00212560
-0.05905073 0.01033378 0.00156702
0.08192095 -0.00043996 0.00187088
0.05174082 -0.00252324 0.00711061
0.00743781 0.00092681 0.00623707
0.00413342 -0.00200836 -0.00091739
0.01047791 0.00110624 0.00630699
-0.02641663 0.00988427 -0.00685693
0.00292744 -0.00291746 0.00504674
-0.05454796 0.00465944 -0.00341771
-0.06408403 0.00360630 0.00591998
-0.02406468 0.00819871 -0.00682589
0.02699411 -0.00328239 0.00551333
-0.00506239 0.00334109 0.00254253
0.07928088 -0.00360548 0.00323935
0.07228397 0.00175056 0.00828760
0.04774312 0.00116147 0.00762702
-0.04118159 -0.01133477 -0.00312321
-0.05391874 0.00967457 0.00125797
-0.03531021 -0.01278418 -0.00642494
0.03667645 0.00326601 0.00125245
0.08262851 -0.00185067 0.00451151
0.03258981 -0.00350800 0.00142123
-0.06228841 0.00220539 0.00213859
-0.02530811 0.00617504 -0.00760468
-0.01777417 0.00236599 -0.00219085
0.00360272 -0.00151388 -0.00115572
-0.00806278 -0.00320447 0.00161671
0.04510476 0.00117380 0.00020910
0.07705000 0.00389189 0.00627050
0.07141535 -0.00388266 0.00350623
-0.05022962 0.01253126 0.00061329
0.03174600 -0.00286005 0.00612326
0.04264507 -0.00168393 0.00029234
0.07858346 -0.00326355 0.00273925
-0.02706955 -0.00643649 -0.00480719
0.03173452 -0.00389334 0.00466600
0.01459402 0.00265488 -0.00013758
0.01800391 -0.00205890 0.00620860
0.05512160 0.00214699 0.00746386
-0.02370683 0.00094087 -0.00463575
-0.04596900 -0.01191586 -0.00497216
-0.03390558 0.00274437 -0.00611878
0.01647027 0.00093544 0.00655658
0.07902026 -0.00337281 0.00288087
0.04301580 -0.00209115 0.00708086
-0.04522226 -0.01389292 -0.00422015
-0.03375221 -0.01328770 -0.00290042
0.02505939 -0.00354762 0.00121713
0.05455208 -0.00402081 0.00326302
0.05619523 -0.00161515 0.00776607
-0.03066831 0.00159180 -0.00899067
-0.04560812 0.00446758 -0.00731757
0.04117729 0.00389164 0.00244516
0.07919015 -0.00061691 0.00331376
0.01512888 -0.00295058 0.00545127
0.02612117 -0.00383861 0.00178720
-0.05621706 -0.00082176 -0.00278263
-0.01212881 -0.00228652 0.00112578
0.03027311 -0.00402081 0.00281351
-0.05873984 -0.00521842 -0.00049341
-0.04154287 0.00734891 -0.00454810
-0.01324324 -0.00288294 -0.00025484
-0.05899208 0.00296246 -0.00068454
-0.05255374 0.00345212 -0.00130155
-0.04952232 -0.00754059 -0.00524623
-0.02727146 -0.00686281 -0.00474169
-0.03393857 0.01066630 -0.00732383
-0.05241471 -0.01231209 -0.00208571
-0.03153024 -0.01321372 -0.00288293
-0.02014390 -0.00579385 -0.00328719
0.01101198 0.00243079 -0.00041817
0.07287424 -0.00397460 0.00592528
-0.01774615 -0.00048621 -0.00556290
-0.04894632 0.00312615 -0.00311836
0.01776807 -0.00079482 0.00664476
-0.02823567 -0.01476383 -0.00515651
-0.02475804 -0.00822658 -0.00701554
-0.05852531 0.00335963 -0.00099321
-0.04289614 0.00196295 -0.00828000
-0.02662719 -0.00702297 -0.00766764
0.01576864 -0.00305855 0.00537765
-0.05621833 0.00058981 -0.00279327
-0.02559844 -0.00353403 -0.00804387
-0.04217671 -0.00862551 -0.00723052
0.05673490 0.00082979 0.00801726
-0.04457828 -0.01204434 -0.00533945
-0.03561899 0.00599540 -0.00866048
0.00406209 0.00401997 0.00265601
0.02786507 0.00332987 0.00101631
-0.03343262 0.00494650 -0.00880333
0.02902978 -0.00330855 0.00102822
-0.04432240 -0.00924851 -0.00322867
0.00732403 0.00025218 0.00632602
-0.05472850 -0.01049635 -0.00161642
0.05942682 -0.00402081 0.00422375
-0.01732499 -0.00126935 -0.00532308
0.07447812 -0.00294232 0.00224408
-0.04970142 -0.01240753 -0.00331390
-0.02521212 -0.00585397 -0.00451365
-0.02757875 0.00654704 -0.00797094
-0.05377423 0.00087546 -0.00081333
0.02286144 0.00194102 0.00643580
-0.04034434 0.00423958 -0.00546894
-0.03183789 -0.00803300 -0.00502604
-0.05600581 -0.01173230 -0.00026015
-0.04607742 -0.00583629 -0.00695790
0.04011364 0.00401997 0.00285156
-0.04865172 0.00253530 -0.00331923
0.01428502 -0.00285912 0.00003334
-0.02410222 -0.00180021 -0.00472366
0.00978123 0.00292796 0.00528416
-0.02315545 -0.00778853 -0.00349022
-0.04469443 -0.00142123 -0.00478392
-0.03062969 -0.00289031 -0.00893025
0.05422046 0.00178593 0.00075705
0.04979965 0.00102490 0.00032997
-0.06243866 -0.00274624 0.00230858
-0.04538074 0.00399899 -0.00745548
0.01089126 0.00329205 0.00036664
0.04477958 -0.00400728 0.00286302
-0.03640745 -0.00567755 -0.00562731
-0.04499601 -0.01178456 -0.00536673
0.07409800 0.00301675 0.00230235
-0.04045129 -0.00898401 -0.00421770
-0.00794760 0.00286618 -0.00018876
-0.04090149 -0.00494852 -0.00523172
-0.02931962 -0.01331706 -0.00595694
0.00839390 -0.00402081 0.00194703
0.06265175 0.00003695 0.00066783
-0.03363996 -0.01059054 -0.00734537
0.07503799 0.00401997 0.00405696
-0.03586754 -0.00884304 -0.00477844
-0.04710436 0.00958659 -0.00217825
-0.02203075 -0.01019330 -0.00477409
-0.03255045 0.00345408 -0.00900140
-0.04800807 0.01465602 -0.00106583
-0.00555512 0.00348382 0.00142503
-0.05484877 -0.01222848 0.00064361
-0.03060313 0.01152571 -0.00688881
0.05625426 -0.00402081 0.00357754
-0.04819414 0.00526598 -0.00632916
0.00229649 0.00350881 0.00033664
0.06342615 -0.00380280 0.00602121
0.07308999 0.00264081 0.00777570
-0.06035092 0.00045973 0.00025409
-0.05408702 0.01195964 0.00133274
-0.03469042 -0.01515072 -0.00525726
0.06982549 0.00341455 0.00688477
-0.06003715 -0.00715660 0.00512748
0.00844253 -0.00292549 0.00523578
-0.04922790 -0.00163009 -0.00637917
-0.04992273 -0.00766901 -0.00169199
0.05644314 -0.00215271 0.00102747
