# .PCD v0.7 - Point Cloud Data file format
VERSION 0.7
FIELDS x y z
SIZE 4 4 4
TYPE F F F
COUNT 1 1 1
WIDTH 1000
HEIGHT 1
VIEWPOINT 0 0 0 1 0 0 0
POINTS 1000
DATA ascii
-0.01301392 -0.02893880 -0.02601966
-0.01409904 -0.03546928 -0.00149101
-0.03361267 0.01836853 -0.02086373
-0.02011572 0.02753326 -0.01803979
0.03431168 0.02341930 0.00669909
0.00469354 -0.01513023 -0.02617639
0.00552085 -0.04077477 0.00607974
0.01743288 0.05799590 0.01624686
-0.00780835 0.04146633 0.00771721
0.03302648 0.02712955 0.00848844
-0.03242641 -0.00468054 -0.02021903
-0.04991692 0.03251860 0.01632175
-0.05707675 -0.00498739 0.01119570
0.00892898 0.05462210 0.01595983
-0.04425636 -0.01664681 0.01287520
0.04300370 0.00109681 -0.00279462
-0.03438185 -0.00155918 -0.02513406
0.02787218 -0.04867789 0.01608274
0.03356554 -0.04846188 0.01630772
0.00004390 0.01941550 -0.02117633
-0.03371043 -0.00357460 -0.01846678
-0.00360331 -0.03891934 -0.01904582
0.05196930 0.00770521 0.01533950
0.03484986 -0.04811490 0.01130210
-0.02744493 -0.03073082 -0.01080435
-0.02793334 0.02587775 -0.00193688
-0.03682361 0.02260800 -0.00209300
-0.03729755 0.01667394 0.00550449
-0.03838949 -0.04319253 0.01623699
-0.04254152 0.02680145 0.00889439
-0.02974051 0.02724677 -0.01487842
-0.00538053 0.00362544 -0.02117633
0.01956333 0.01792834 -0.02117633
0.03120343 0.03100843 0.00018399
-0.01305554 0.01940270 -0.02117633
0.02239182 -0.03259604 0.00264505
-0.02806716 -0.02797724 -0.01738487
0.04660914 -0.00301227 0.00545409
-0.01986459 0.03459238 0.00341256
0.01061637 0.05070601 0.00973736
-0.00382944 0.00893627 -0.02117633
0.04025033 0.00645596 -0.01300896
0.02772034 -0.02431028 -0.02311352
0.00243360 -0.04103827 0.00601185
-0.00520134 -0.04215082 -0.00491916
0.05181001 0.03429047 0.01512040
0.02726511 0.04490420 0.01532924
-0.01390925 -0.03429678 -0.00630492
0.04367346 0.04058613 0.01131072
0.00012660 0.02541464 -0.02617638
0.01418046 -0.01418116 -0.02617639
0.04391290 0.04103014 0.01631461
-0.03711224 -0.02900999 0.00598424
-0.03199326 0.01671412 -0.01087925
0.00556445 0.06170644 0.01534290
-0.01114391 -0.03563011 -0.00486007
-0.01038014 0.00995715 -0.02117633
-0.02824091 0.00449690 -0.02117633
-0.04117808 0.00195024 -0.01066178
0.03273222 0.04972908 0.01130747
-0.02238406 0.03505750 -0.00898796
-0.00661804 -0.06185349 0.01277217
-0.00615186 0.00009166 -0.02617639
0.05146627 -0.00995303 0.01530181
0.01783541 -0.02880700 -0.01857228
0.03349778 -0.02356241 -0.01202909
-0.01492905 -0.04307631 0.00379390
-0.01509538 0.03850008 -0.01019247
0.03403211 0.03501770 0.01378781
0.00473320 -0.04127005 -0.00914749
0.01397471 0.02547488 -0.02617639
0.03832136 0.04641537 0.01133940
-0.03355359 -0.01908640 -0.02017342
-0.00293021 0.03811594 -0.00139157
-0.01092316 -0.04686861 0.01343688
-0.03577617 -0.01909461 -0.01385459
-0.03854847 0.04696097 0.01619491
0.00057012 -0.01740136 -0.02617639
0.02032731 0.03314697 0.00065805
-0.02762038 -0.01036134 -0.02617639
-0.02017381 0.03942481 0.01032965
0.05301617 -0.03232582 0.01249739
0.00325508 -0.01564795 -0.02617639
0.03231676 0.04196984 0.01020425
-0.03578667 -0.03232109 0.00722282
-0.02323598 -0.01309306 -0.02617639
-0.02345442 0.04811534 0.01042526
-0.02833545 -0.01877906 -0.02533650
-0.03474097 -0.01137668 -0.00857064
0.04521423 0.01619749 0.00697480
0.05178655 -0.02791126 0.01629811
-0.03524157 0.03895251 0.01533217
0.02173032 -0.02902676 -0.01009526
-0.00969089 0.04838782 0.00817701
0.01457927 -0.01860009 -0.02117633
-0.02518086 0.05355731 0.01631963
-0.00694500 -0.05189946 0.01529332
-0.03020736 -0.02702506 -0.01396085
-0.05455524 0.02241779 0.01630903
-0.05068594 -0.03637249 0.01440531
-0.02477035 0.05006251 0.01604315
0.00110220 -0.01606514 -0.02117633
0.00519357 0.05596915 0.01103254
-0.04714067 -0.02577056 0.01048685
0.01635950 0.05946974 0.01198299
0.03757606 -0.02218354 -0.00071571
0.01608457 0.01038572 -0.02617639
-0.01084716 -0.01831327 -0.02117633
0.02706400 0.02526410 -0.02291500
0.01896551 -0.03068976 -0.01105739
0.04464942 -0.03710289 0.01625292
-0.02047970 -0.03754590 0.00855686
-0.03754602 0.01952939 -0.00553020
-0.05093940 0.02563147 0.01618950
-0.02404110 0.01839105 -0.02115391
-0.00259740 0.04500129 0.01110176
0.00109691 -0.04997844 0.01439722
-0.00233145 0.03721327 -0.00527862
-0.02974728 -0.03870803 0.00778484
-0.01914825 -0.00031539 -0.02617639
-0.00008315 -0.02016661 -0.02617639
-0.00772009 0.02508250 -0.02117633
0.03622513 -0.00359742 -0.02364675
0.00915471 -0.04006378 -0.01129712
0.03034154 -0.03083684 0.00913702
-0.01640946 -0.01942176 -0.02117633
0.02204635 0.05448685 0.01127769
-0.05780530 -0.02365187 0.01411385
0.02312267 -0.04175415 0.00673657
0.03645453 0.01343928 -0.01968721
0.01609320 0.05076036 0.01552033
-0.00152212 0.01199150 -0.02617639
0.01665305 0.04437835 0.01293355
0.01405973 -0.03170176 -0.02501316
-0.03966487 -0.00474246 -0.01631170
-0.04465201 -0.00754977 0.00320970
-0.06014037 -0.01555108 0.01506818
-0.02301153 0.01717199 -0.02617639
-0.00565602 0.04138008 -0.00827030
-0.03871624 0.00597965 -0.01887931
0.04379288 0.03327138 0.01080632
-0.00929558 -0.03795680 0.00143425
0.02090156 -0.01306255 -0.02117633
-0.00137020 -0.04990748 0.00864313
0.03927295 0.02080428 0.00131942
-0.04032613 0.00335085 0.00473136
0.02157600 0.05862126 0.01409128
-0.01146409 0.04791518 0.00812872
-0.03165873 -0.02735599 -0.00761904
-0.03608740 0.00787903 -0.00672373
0.04056465 -0.04735277 0.01451216
-0.04119072 -0.01165693 -0.00346283
0.00810646 0.04071522 -0.00941122
0.04450574 0.00176756 0.00156858
-0.02395077 0.05452796 0.01130845
-0.06175631 0.00826101 0.01472690
-0.03937790 -0.02052851 0.00138140
0.04536886 0.02289121 0.00918113
0.03101506 -0.03273938 0.00280539
0.06160258 -0.00872788 0.01273474
-0.04258924 0.00465425 -0.00333498
-0.00323296 -0.04405674 0.00076208
-0.00218364 -0.02819457 -0.02617639
-0.03453769 0.02981334 0.00382311
0.03688542 0.00757844 -0.02204096
-0.00898673 0.03764374 0.00020974
0.00950573 -0.03785311 -0.01925058
0.03230062 -0.01500877 -0.02437403
0.00784603 -0.03349557 -0.02514552
0.02847348 0.01549014 -0.02590566
0.03019439 0.02371574 -0.02072205
-0.04174965 -0.00997887 -0.00304975
-0.05720076 -0.01608414 0.01632112
-0.03417948 0.05206920 0.01474565
0.05498149 0.02804148 0.01560780
0.03787196 -0.01965365 0.00840065
-0.05423491 -0.02186882 0.01126705
0.00610262 -0.00455733 -0.02117633
-0.04302183 0.00065540 -0.00266928
0.05100587 0.02736964 0.01124242
-0.03037603 0.05424851 0.01266808
-0.02412331 0.02177453 -0.02045483
0.05134221 0.01884875 0.01072819
0.02024606 0.03142662 -0.02246181
-0.01270084 0.03877563 0.00537182
0.03191761 0.05356248 0.01302742
-0.01240629 -0.01258156 -0.02617639
-0.00075236 0.03520860 -0.02465646
-0.03706855 -0.01575366 -0.01500727
0.01888795 0.04093378 0.01113276
-0.01782293 -0.05980926 0.01331282
0.01956334 -0.02252591 -0.02617639
0.02075866 -0.01051490 -0.02617639
0.03709219 -0.00974428 -0.00095521
0.01972960 0.03655207 -0.00932426
-0.02835568 0.04444990 0.01538813
0.00868311 0.00815544 -0.02617639
-0.01251838 0.03589745 -0.00216039
-0.03301296 0.02519678 -0.00923307
0.05160797 0.01667719 0.01061197
-0.05214931 -0.00380054 0.00993143
-0.01336423 0.04036692 -0.00475224
0.03388529 0.03974092 0.01525048
-0.02633117 0.03389868 -0.00318062
-0.04225820 -0.03315860 0.01565139
-0.01779136 0.03204340 -0.00827793
-0.02337847 0.01495608 -0.02117633
-0.05373425 0.02033099 0.01121834
-0.01761466 0.00912681 -0.02617639
-0.00075807 -0.04732746 0.01291267
0.02997657 -0.00151112 -0.02117524
0.02175292 0.01980247 -0.02617639
-0.01092562 -0.05615066 0.01118391
-0.01933977 -0.02926557 -0.01522521
0.04069433 0.02301217 0.01249696
-0.05150146 -0.03523968 0.01333258
0.00926073 -0.04399544 0.01104122
-0.03333799 0.05034750 0.01136133
-0.02104356 0.02764734 -0.01636560
0.03844639 -0.00516675 0.00047239
-0.05801506 0.00835882 0.01628663
0.01416284 -0.04555425 0.00671086
0.03587492 0.04507386 0.01123315
0.03901753 -0.01639338 -0.00559554
0.02281391 0.02781827 -0.01159492
-0.04573331 0.00280658 0.00413433
0.05795102 -0.02332011 0.01414458
-0.03061861 -0.02532932 0.00311123
0.05636575 0.02214989 0.01624749
0.04147117 -0.03503360 0.01062810
0.01152222 -0.03691768 -0.02001545
-0.04126603 0.02550058 0.00748571
0.02419153 0.02409880 -0.02528576
0.05305583 -0.02835892 0.01133813
0.04226179 -0.00046256 0.00782831
-0.04576252 0.00219433 0.01178188
-0.00766692 0.00104932 -0.02617639
-0.04011701 0.00257779 0.00419965
-0.04979433 0.02350591 0.01083345
-0.04058979 -0.01536831 -0.00143394
0.03892236 -0.00595495 -0.01825398
0.02132959 0.04240094 0.00636499
-0.02593537 0.03077434 -0.01520293
0.01725116 0.03230359 -0.00842292
-0.01406213 -0.01100553 -0.02117633
0.03066826 -0.03411762 0.00422574
0.04049555 0.00006736 0.00477778
0.03262111 -0.02999120 0.01036110
0.02930176 -0.02272309 -0.02282801
-0.02299906 -0.02834710 -0.00879713
-0.01134766 -0.01691881 -0.02617639
0.01607546 0.04254412 0.00355083
-0.00222591 -0.05328480 0.01555045
-0.02876794 0.04140949 0.01458547
-0.04909499 -0.03525784 0.01137808
-0.03455530 0.00994783 -0.01151628
-0.00360933 -0.03725045 -0.02235653
0.02725770 0.02078514 -0.01768460
-0.01026573 -0.03981114 -0.01116387
-0.02069516 -0.02951373 -0.02394397
-0.01179149 0.01920140 -0.02117633
0.03168021 -0.02273397 -0.01931361
-0.03447651 0.05207835 0.01389303
-0.01388708 -0.05601029 0.01623312
-0.02749578 -0.03345186 -0.00172793
0.01910967 -0.03886229 -0.00177473
-0.00885731 -0.00581529 -0.02117633
-0.00105432 0.04122534 -0.01072366
0.03410791 0.04015933 0.01007933
-0.03402005 0.02226944 -0.01342784
-0.03816881 0.03954140 0.01590533
0.03758450 0.01112680 0.00166956
0.00119144 -0.00607513 -0.02117633
0.01911734 -0.05177418 0.01087231
0.01865508 -0.03232273 -0.00495501
0.02551495 0.05616695 0.01200526
0.03081722 0.03011455 -0.00256361
0.04506733 -0.03658178 0.01125088
-0.01663191 0.05671345 0.01631423
-0.05308685 0.02479771 0.01127176
-0.03247519 -0.05266920 0.01225898
-0.03608885 -0.00259655 -0.01049807
-0.01648921 0.04192152 0.00267661
0.02131695 0.03852737 0.00032333
-0.00547935 0.01028031 -0.02117633
0.03986331 -0.02871983 0.01396040
-0.01070021 -0.01488832 -0.02117633
0.04195543 -0.02083306 0.01257124
0.05360791 -0.02401719 0.01629301
-0.01593613 0.00501543 -0.02117633
-0.02343318 0.01862584 -0.02617639
0.03155132 -0.01415459 -0.02507322
-0.03207467 -0.01080380 -0.01859618
0.00731516 -0.02088808 -0.02617639
0.02390080 0.02364787 -0.02553550
-0.05443186 0.00050885 0.01066739
0.03665456 0.04314108 0.01109016
-0.03337520 0.05093408 0.01613837
-0.03580608 0.01067860 -0.02245836
-0.03478425 -0.02011283 0.00415252
0.03417379 0.01836948 0.00040500
-0.04447088 -0.03187895 0.01586960
0.01012103 -0.00188435 -0.02117633
-0.02594185 0.03412701 0.00865200
0.00422658 0.03648624 -0.00785655
0.06241998 0.00158777 0.01346981
-0.05801288 -0.02305931 0.01345820
0.04387068 -0.02384970 0.00861674
-0.04248354 -0.00259271 -0.00452754
-0.00228666 -0.03723928 -0.00503851
-0.01561953 0.03858433 -0.00882499
0.03629408 -0.01320302 -0.02020126
-0.02470957 -0.02814191 -0.02231980
0.05219832 -0.01254965 0.01046874
-0.02488204 0.04591310 0.00990321
0.02243758 0.02122231 -0.02613079
-0.02985972 -0.02454808 0.00011956
0.00220601 0.02255463 -0.02617639
0.00299596 -0.05353689 0.01562894
0.03039506 0.00947208 -0.02085943
0.06031914 -0.00819931 0.01614922
-0.00965969 0.00110616 -0.02117633
-0.01371158 -0.03330692 -0.01118174
0.01681446 -0.03130179 -0.01338172
0.04299002 -0.02476155 0.00839315
0.01761836 0.03888179 -0.00411491
0.01366940 0.05061313 0.00998258
0.02863775 -0.02443761 -0.02202931
0.01264128 -0.04309810 0.01099291
0.02193128 -0.04196685 0.00626172
0.01746979 0.04211791 0.00370823
-0.04757872 -0.04010084 0.01485310
0.04378803 -0.01305303 0.00391185
-0.03245591 -0.02172740 -0.01912605
0.03668982 -0.02378718 0.00973086
-0.03000392 0.02390814 -0.00085995
-0.01239148 -0.04081666 0.00841324
-0.01734195 -0.03029226 -0.01576875
0.03261549 0.02059307 -0.00025522
0.04332154 -0.04036158 0.01632013
-0.01647955 0.03909286 -0.00514817
-0.00982847 0.02556106 -0.02617639
0.04408406 0.03881822 0.01629164
0.04688107 -0.00593345 0.00612480
-0.02313995 -0.04345179 0.00812148
-0.02693260 0.04120759 0.00808929
0.03841229 -0.02295980 0.00210874
0.01291013 -0.05301523 0.01070078
0.03483059 0.01148732 -0.00812301
0.00471830 -0.06128719 0.01582531
0.02890239 0.02894501 -0.01243843
0.02212025 -0.01924336 -0.02617639
-0.03465054 -0.00580070 -0.01502236
-0.03858714 -0.02282335 0.01089142
-0.03182481 -0.02955361 0.00938888
0.00259060 -0.05375586 0.01051030
0.00814195 0.03632256 -0.02266015
-0.03805619 0.02378143 0.01094348
-0.04070678 -0.00761128 0.00655444
-0.02430445 -0.03036534 0.00085457
-0.05866150 -0.01241361 0.01632344
0.03262319 0.01416180 -0.01340097
-0.04368270 -0.00204358 -0.00036129
0.01906206 -0.00577962 -0.02117633
0.04432792 -0.01264150 0.00453701
-0.02631803 0.03515611 0.00005034
-0.03848840 0.00390939 0.00023419
0.00531483 0.03841684 -0.01981784
0.02840953 0.02749148 -0.01780746
-0.03933010 0.00591295 0.00314940
0.05738112 0.02455005 0.01324729
-0.01695669 0.03124421 -0.01339231
0.00681093 0.00996447 -0.02117633
0.00854631 -0.02894588 -0.02115983
0.03778338 -0.01245282 -0.01701136
0.04920226 0.00416475 0.00821027
-0.01256842 -0.05618958 0.01123285
0.03600075 0.00952615 -0.00549807
-0.04197623 -0.02568514 0.01401237
-0.01070933 -0.02156788 -0.02117633
0.02485084 -0.02537894 -0.01353413
-0.00642040 0.05061990 0.01480271
0.00818573 0.00606394 -0.02617639
-0.00928611 -0.01930741 -0.02117633
0.06145402 0.01110867 0.01414343
-0.02170359 -0.03456995 -0.01258523
0.02374590 0.00331934 -0.02117633
0.00895682 0.04410948 0.01105980
-0.00355310 0.04049610 0.00507397
-0.02657384 -0.02773712 -0.00055800
-0.01068058 -0.03769314 -0.01882528
-0.04380047 -0.01856110 0.01306903
-0.04178888 0.00193394 -0.00769247
0.00170715 0.05778898 0.01623631
-0.04185888 0.00283649 -0.00718368
0.02232904 0.03266631 0.00263951
-0.00782293 -0.02816594 -0.02617639
0.04434887 -0.01418375 0.01238186
0.03317077 0.02692503 0.00846733
0.03084541 0.02502536 -0.01722456
0.02777452 0.00161849 -0.02117633
0.00720445 0.00876762 -0.02117633
-0.01031147 -0.00581678 -0.02617639
0.00082711 0.04915236 0.01395619
-0.04612942 -0.01540061 0.00761629
0.01873152 0.00734518 -0.02617639
0.01420296 0.04320386 0.00349722
-0.00940317 -0.03141328 -0.02018637
-0.02579691 0.03306655 -0.00739507
0.01184391 -0.01014206 -0.02117633
0.01082441 -0.02801253 -0.02617475
0.02610450 -0.03413050 -0.00285620
-0.01009702 -0.04044720 0.00698748
0.04314480 -0.00657652 -0.00071412
0.04283432 -0.01464207 0.01129574
-0.02639198 0.05209233 0.01627368
-0.02318336 -0.02861519 -0.00718972
-0.02334061 0.03952177 0.00424258
-0.04902478 0.01932456 0.01009292
-0.02656410 -0.03131502 -0.01138631
-0.03519340 -0.01219060 -0.00523665
-0.03981457 -0.01413696 0.00785890
-0.04410230 0.01916384 0.01340690
0.01996294 0.03858985 -0.00145714
0.03373148 0.00837608 -0.01634532
0.04031080 0.00167069 -0.01494690
-0.04518558 0.00170342 0.00308727
-0.02575684 -0.02942806 -0.01899741
-0.03116354 -0.02494129 0.00352469
-0.03990625 0.02257381 0.01179482
-0.02732220 -0.03105619 -0.00998720
-0.04528615 0.01483691 0.00664859
0.02527456 -0.00360444 -0.02617639
-0.03188208 -0.03443326 0.01263183
0.03344969 -0.00997468 -0.01582414
-0.00447373 0.01830899 -0.02117633
-0.01625997 0.05699196 0.01129632
0.03939656 0.00193920 0.00233159
0.05316043 0.02949559 0.01619186
0.02987378 0.02828905 -0.01120770
0.02149645 0.02837110 -0.01321829
-0.01518302 -0.03439336 -0.00365982
0.00338427 0.02585791 -0.02617638
0.05789537 0.00601784 0.01626035
0.03193226 -0.02500812 0.00491420
-0.01482557 -0.02224719 -0.02117633
-0.04653367 0.00139346 0.00529802
-0.03636190 -0.04274701 0.01608941
-0.04193704 -0.01128862 -0.00131433
-0.04967121 0.03730822 0.01512539
-0.00388838 0.05585016 0.01606038
0.02487337 -0.01374697 -0.02617639
-0.01395443 0.05711683 0.01629784
-0.00246495 -0.00498076 -0.02617639
-0.03421012 0.04545976 0.01113627
0.00363577 0.05577331 0.01099163
-0.02076639 -0.03315769 -0.01893507
0.03997825 -0.01705699 0.00940412
0.02130438 -0.03851882 0.00035846
0.03091297 -0.03326329 0.01143455
-0.01152454 -0.01766836 -0.02117633
-0.00216093 -0.04045591 0.00482290
0.02424037 -0.03256556 0.00498636
0.03164967 0.01104644 -0.01922311
0.03871490 0.00195902 -0.01988059
-0.03435290 -0.04249556 0.01072783
-0.00623822 -0.02902009 -0.02117634
0.02150613 0.05409146 0.01626098
0.00040924 -0.03386849 -0.01856894
0.01897120 -0.00346846 -0.02617639
-0.02566113 -0.03383785 0.00818084
0.02902503 -0.02156649 -0.01068448
0.03595687 0.02504507 -0.00021691
-0.01871269 -0.00699179 -0.02117633
-0.04049167 0.04491544 0.01138371
0.03017564 0.03050865 0.00867318
0.02865790 0.02042525 -0.01492717
0.03543973 0.02848392 0.00352343
0.00100415 0.00016881 -0.02117633
-0.01975599 -0.02318266 -0.02616300
-0.01086515 0.03077690 -0.02034170
0.02207033 0.03299256 -0.01730667
-0.02282715 0.02230972 -0.02082082
-0.04169984 -0.04470901 0.01602484
0.01403326 -0.01511450 -0.02117633
-0.01629592 -0.02974944 -0.01843459
-0.02016224 0.04925305 0.01551813
-0.01533550 -0.03267922 -0.02391272
-0.01743275 0.04677047 0.01434480
-0.04247972 0.04578075 0.01376644
0.03830117 0.01883543 0.00841699
-0.02187609 -0.01069368 -0.02617639
-0.03239202 -0.04118860 0.00997994
0.03724274 -0.04244768 0.01613949
-0.00870902 -0.03250632 -0.01892156
-0.03399858 -0.00995992 -0.01379732
0.04131787 -0.00160636 -0.01030852
-0.05469055 -0.02981361 0.01299866
0.03609963 0.02603449 0.01053608
-0.04042948 -0.00145310 0.00475411
0.01858979 0.04970212 0.01024321
0.03005867 0.05419451 0.01532201
0.05803138 0.02166503 0.01539060
0.04125255 -0.01108779 -0.00405355
0.00217673 0.05229924 0.01528779
-0.02343468 -0.02847268 -0.00692672
-0.01004064 -0.06058024 0.01584893
0.01499352 0.00229875 -0.02617639
0.03415884 0.01492212 -0.00535106
0.03242647 -0.01079128 -0.01787905
0.00356318 0.02852378 -0.02617638
-0.05858128 0.01064731 0.01632163
-0.03641385 -0.00950780 -0.00348789
0.05846657 0.01516767 0.01136172
-0.03135980 0.03062818 0.00986244
-0.01734897 0.03734929 -0.01110140
0.04456860 0.00996289 0.00386520
-0.02453918 0.03273896 -0.01226296
-0.03330188 0.01681244 -0.00507101
-0.04673854 -0.02085363 0.01488275
0.00500164 0.04328025 0.00952975
-0.01766991 -0.01262075 -0.02117633
0.00584547 -0.00930898 -0.02117633
0.01151408 -0.02534628 -0.02617639
0.01923745 -0.03493935 -0.01659204
-0.03852440 0.00273007 -0.00001151
0.02105388 0.03820871 -0.00080559
-0.01101868 -0.04482918 0.00471030
-0.01868693 -0.05922317 0.01510527
-0.04346365 -0.01814525 0.00597393
0.02394269 -0.03110197 -0.01859340
0.00001449 -0.03707609 -0.00604065
0.03754069 -0.01652489 -0.01187607
0.03984665 -0.01044729 0.00609051
0.03820347 -0.03632030 0.01538951
-0.03577824 -0.01398991 -0.02061933
-0.02399380 -0.03547337 0.00862501
0.01041148 -0.05582067 0.01617543
0.05880810 0.01616508 0.01611005
0.02088911 0.03986345 0.01103569
-0.02291595 0.01586855 -0.02617639
0.01611304 -0.03364809 -0.00500366
-0.01749538 0.04287755 0.00489598
0.02660773 -0.00092430 -0.02117633
0.04036239 -0.01945958 0.00222382
0.00298747 -0.03977520 -0.01657486
0.03147342 -0.03993356 0.01475110
0.01910394 -0.02412423 -0.02614195
0.03201924 0.01223885 -0.02521711
-0.02808619 -0.04850519 0.01607602
0.03623246 -0.00423293 -0.00915799
0.01263232 0.02597425 -0.02617639
-0.04159488 0.03544794 0.01585739
0.00003598 0.05760889 0.01622447
0.02150014 0.00228175 -0.02117633
-0.01930795 0.04947425 0.01025799
0.01402540 -0.04106893 -0.00150675
0.05784271 -0.01130345 0.01630450
-0.03147831 0.01178220 -0.01901090
0.01138281 -0.05834046 0.01632117
0.03576663 -0.00093276 -0.01242873
-0.01011144 -0.03239709 -0.01837725
-0.04776325 -0.03791471 0.01609369
-0.02032758 -0.01339517 -0.02617639
-0.02491203 -0.03725275 0.00223461
0.05221134 -0.00637888 0.01005011
0.03101629 -0.01890996 -0.00979592
-0.00063574 0.00662631 -0.02617639
0.00338709 0.03081657 -0.02611644
0.05494232 0.01845826 0.01624565
-0.04327262 -0.00619588 0.00974038
-0.01574609 -0.03866693 -0.00807208
-0.04168236 0.02993358 0.01492396
0.01835915 0.03518408 -0.01738465
-0.02448321 -0.04669666 0.01539721
-0.00269093 0.02881926 -0.02117633
0.02292727 -0.05259406 0.01621122
-0.02087829 0.03115779 -0.02229252
-0.00784309 -0.02735833 -0.02117634
0.02561512 -0.00518851 -0.02117633
-0.02074829 -0.03829753 0.00955582
-0.01674054 -0.03748030 -0.01151484
-0.00939646 -0.01528257 -0.02117633
0.00799874 0.04467741 0.00332371
-0.03855949 -0.01420987 -0.01126865
0.02830968 0.02268131 -0.01010773
0.03552588 0.04615714 0.01125779
-0.05556323 0.02835821 0.01442330
0.04759677 -0.02740386 0.01589945
-0.04345033 0.04040888 0.01129925
0.03401264 0.04439346 0.01605249
-0.00115750 0.04075190 -0.01299337
-0.00188673 0.03830104 -0.00099123
0.01324880 -0.03171744 -0.01740376
-0.02866316 -0.03891455 0.00733231
0.02893286 0.00697203 -0.02117633
0.01773578 -0.03617018 0.00439875
-0.00376098 0.06231472 0.01427938
-0.01557462 0.04208785 0.00230443
0.03493500 0.03360805 0.01361935
-0.00495357 0.00267642 -0.02617639
0.02816802 -0.03552443 0.00330656
-0.03563208 -0.02704201 0.00211996
-0.02618683 -0.00530906 -0.02617639
0.04070046 0.02133571 0.00428734
0.01734771 0.03889796 0.00829459
-0.05194282 0.01774782 0.01589611
-0.02369879 0.01834287 -0.02117633
-0.03902859 -0.02370501 0.00389978
0.02224524 0.04087416 0.01235448
0.02065031 0.03315446 0.00121168
0.02837457 0.04957267 0.01116786
0.04013566 0.01098684 -0.00904545
0.03507424 -0.02556082 -0.00151464
0.03492196 0.05149395 0.01491731
0.01241562 0.04648295 0.01340021
0.03143497 -0.01865158 -0.00865083
0.02114445 -0.04937679 0.01564488
-0.03804407 0.01408887 0.00495171
0.01041891 -0.03743360 -0.01958955
-0.04634264 0.01007087 0.00636372
0.01870506 0.02694363 -0.02579167
-0.03532583 -0.03367171 0.00776572
-0.01309673 -0.03098764 -0.01893132
-0.02174718 0.02722968 -0.02491022
0.03483960 0.02281843 -0.00882587
-0.03188628 0.03534838 0.00655669
-0.01542893 -0.01957223 -0.02117633
-0.00541345 -0.01484608 -0.02617639
-0.01526192 -0.04418236 0.00554065
-0.01930633 0.00673692 -0.02117633
-0.05111967 0.02053796 0.01592243
-0.05335462 -0.02588010 0.01632046
-0.04907603 0.02754672 0.01104915
0.02770941 0.03533797 0.01095243
0.00279378 0.03576046 -0.02414943
0.03682559 0.01721202 0.00505138
-0.03667012 0.00217372 -0.00769986
0.01049785 0.02493223 -0.02617639
0.02301772 -0.04974366 0.01077167
-0.04109958 0.02596542 0.01370290
-0.02807104 0.05143848 0.01127117
0.00233617 0.04451901 0.00173790
-0.01972949 0.01508531 -0.02117633
-0.04611889 0.03450631 0.01123376
0.00470012 -0.00368914 -0.02117633
-0.00520203 -0.04165812 -0.00703231
0.02525883 -0.03312480 -0.00860675
0.00203279 -0.03527986 -0.01416276
-0.05083420 -0.00362240 0.00926850
-0.05027210 -0.03621202 0.01233999
0.01567796 -0.01573384 -0.02117633
-0.03521192 0.00066194 -0.01472027
0.01495039 0.06066464 0.01385107
-0.00084223 0.03893472 0.00093149
-0.01250610 0.03541350 -0.00397176
0.05648335 -0.01880102 0.01130739
0.04377987 -0.01488019 0.00476703
0.00358406 -0.03757217 -0.02186772
0.02191917 -0.03552451 0.00701432
-0.03560959 -0.05026745 0.01196634
-0.06082754 0.01329917 0.01284592
0.03399038 -0.01532232 -0.02258592
0.01086962 -0.03782326 -0.01825134
0.02139754 0.03459491 -0.01355148
-0.00505015 0.03731073 -0.02206501
0.03711206 0.00313857 -0.00538938
0.01882800 0.04699655 0.00907074
0.04442437 0.04393955 0.01368110
-0.06188006 0.00697521 0.01289502
0.01679434 0.00854263 -0.02617639
0.04023852 0.00573374 -0.01358964
-0.03342456 0.02596439 -0.00554254
0.02610240 -0.02272337 -0.01683143
-0.01761588 -0.01166050 -0.02117633
0.01626872 0.03025636 -0.01748366
-0.03707971 0.00033642 -0.00606897
-0.01399179 0.05839864 0.01631875
0.01806414 -0.01496578 -0.02117633
0.02573574 0.02610274 -0.00832768
-0.00359647 0.03718683 -0.00485507
0.02556643 0.02902827 0.00011736
0.02508448 -0.03958579 0.00566318
0.00528074 0.04093915 -0.01053999
0.01877635 0.04317693 0.00589961
-0.01530180 -0.03817916 -0.01109334
0.04575169 -0.01776947 0.00799432
0.05622681 -0.02639483 0.01255324
0.03937068 0.03810696 0.01587633
0.02384414 0.03162309 0.00272155
0.00077548 -0.02203432 -0.02617639
-0.03165919 0.03365297 0.01208794
0.05886541 -0.00325014 0.01630679
0.02515354 -0.03820193 0.01171402
0.01315212 0.01300118 -0.02117633
0.01689896 0.05184867 0.01583288
0.02121094 0.05699477 0.01618141
-0.03309977 -0.02365429 0.00518208
0.03473361 0.00387669 -0.01576340
0.00006425 0.04925212 0.00810934
0.03541849 -0.01775408 -0.01749531
-0.01080834 -0.02249487 -0.02617639
-0.03127048 0.02282564 0.00028816
0.03647974 0.00086382 -0.00905462
-0.03800866 -0.04176667 0.01613791
0.00341915 0.05345372 0.01043470
0.04118731 -0.00060412 0.00610512
0.02255982 -0.03589828 -0.00525154
-0.03141458 0.03785266 0.00807880
0.01814925 -0.04708716 0.00900076
0.02058914 -0.03597023 -0.00961673
-0.02474616 0.00600442 -0.02117633
-0.01114338 -0.01228050 -0.02617639
-0.03449567 -0.05106201 0.01195554
-0.04802007 -0.03913468 0.01535177
-0.00512988 0.01858899 -0.02117633
0.03166596 0.01875340 -0.00748443
0.04642016 0.00645421 0.01257795
0.05470728 0.01696259 0.01119129
-0.02050798 -0.04275534 0.01296221
0.03504386 0.03036673 0.01219891
0.00159163 0.01961751 -0.02117633
0.05157678 0.00685521 0.00982489
0.05304475 0.00132040 0.01023752
0.00084566 0.04452624 0.00154203
0.01797947 -0.01597922 -0.02117633
0.04335659 -0.01512412 0.00423951
0.04077598 -0.02840812 0.00845860
-0.01863452 0.03219860 -0.00558704
-0.03379137 -0.00053627 -0.01869739
-0.03640861 -0.04440887 0.01621584
-0.00069265 -0.05206103 0.01521531
0.04993283 0.02247684 0.01074349
0.01028420 -0.00097555 -0.02117633
-0.05118078 0.01982697 0.01589245
-0.00216106 0.03535959 -0.01399782
-0.02526059 0.03045140 0.00267715
0.00272368 0.01693799 -0.02117633
-0.00493482 -0.02443082 -0.02617639
0.01479520 -0.05205571 0.01058865
0.01277088 0.02390613 -0.02617639
-0.01692538 0.03536706 0.00170434
0.03164147 -0.02698749 -0.00901832
-0.01857349 0.02715033 -0.02008263
-0.01917789 0.04482198 0.00771335
-0.02759217 -0.00486805 -0.02117633
0.02356423 -0.02199511 -0.02594718
-0.04463230 -0.03076152 0.01577338
0.00998999 -0.03016835 -0.02088024
0.02412960 0.03310560 -0.01216231
0.00978254 0.03136563 -0.02014173
0.05737611 0.00521187 0.01622500
-0.00159721 0.05438183 0.01065731
0.03844929 0.00057544 -0.00054215
0.03778681 0.01355259 -0.01575834
-0.03530233 0.02052266 -0.01268828
0.00838052 -0.00140322 -0.02617639
-0.03112027 0.04821553 0.01621108
-0.02014190 -0.04595016 0.01450071
-0.03264092 -0.02191338 0.00211163
0.03513332 0.02345176 -0.00597420
-0.02801235 -0.03959287 0.00749702
-0.03032764 -0.02423420 -0.01968543
0.00770803 0.03540821 -0.01028338
0.00401748 0.04179375 -0.00722429
0.02907596 -0.02831803 -0.01380039
0.03183020 0.03779265 0.01408041
-0.06048466 -0.01227633 0.01557340
-0.00685700 0.06168438 0.01239953
0.01200556 -0.03470440 -0.00779800
-0.03060432 -0.04927142 0.01625128
-0.01582639 0.03470050 -0.00175098
0.03052058 0.01766416 -0.01463841
0.04858760 0.02401782 0.01577039
0.00263316 0.03732067 -0.00463890
0.05692379 0.02058932 0.01138686
0.01675474 0.00410427 -0.02617639
0.00029701 -0.03959427 0.00276530
0.03613050 -0.02008987 -0.01022485
-0.04063407 -0.02073004 0.00382659
0.02171844 0.05560834 0.01131369
-0.05671658 -0.00907319 0.01621497
-0.02950417 -0.04473648 0.01561420
-0.04713226 0.01504492 0.01413284
0.01240818 -0.02968699 -0.02068566
0.00075219 -0.04633106 0.00493808
0.00198110 -0.03653667 -0.02341897
0.01158653 -0.04098658 -0.00437398
0.01509163 -0.02081631 -0.02617639
0.01779120 0.04478207 0.00714753
-0.05424408 -0.02381070 0.01129763
-0.00840411 -0.00046099 -0.02117633
0.00962173 0.03885683 -0.01620772
-0.02999576 0.01604852 -0.01820519
0.03025097 0.02372255 -0.00060320
-0.03989818 0.03408679 0.01001285
-0.00817560 0.05259673 0.01030873
0.01994651 0.05075882 0.01583663
0.00563150 0.04380955 0.00068588
0.01780661 -0.01669352 -0.02617639
0.00975308 -0.04334102 0.00140560
-0.00630203 0.03214325 -0.02580311
0.01609164 0.06011970 0.01494893
0.02700795 -0.02172712 -0.01658333
0.02513149 0.03286509 -0.01010877
0.02817263 0.03489029 0.00225369
-0.01134073 0.00858572 -0.02617639
-0.02162903 0.03590928 0.00730734
0.03634774 -0.03382450 0.01423145
0.02104955 0.01454893 -0.02117633
0.01243232 0.03486689 -0.00646264
0.03397455 0.00957477 -0.01453937
-0.00927972 0.03691649 -0.02132034
0.00678798 -0.00300157 -0.02617639
-0.03729268 0.04965786 0.01252060
0.03935387 0.00609621 0.00326596
-0.03396204 -0.01579105 -0.00431082
-0.05101761 0.01150617 0.01527730
-0.05050904 0.03266537 0.01133833
0.02209240 -0.02605011 -0.01793188
0.03079548 -0.04703232 0.01104180
-0.01480246 0.03684070 0.00298453
0.05153517 -0.03125255 0.01630006
-0.05389969 0.01940751 0.01620685
-0.01259741 0.03747701 -0.01775528
-0.03617873 -0.00985068 -0.00409604
-0.00108513 -0.03717941 -0.02265217
-0.04322223 0.00734653 0.00988229
-0.03939891 0.02063520 0.00151982
0.03180375 -0.02790521 -0.00569515
-0.00769105 0.02029444 -0.02117633
-0.02001715 0.03669840 0.00710179
0.05248942 0.00369028 0.01536088
0.03912451 -0.00834765 -0.01620209
-0.01512903 -0.03673865 -0.01706935
0.03341524 -0.01685595 -0.02238785
-0.02718464 -0.00278511 -0.02617639
0.04009322 0.02462787 0.00586846
-0.02097144 0.03565815 -0.01008315
0.01547584 -0.04196965 0.01080410
-0.03738786 0.02696870 0.00456950
-0.01016354 -0.04730079 0.01357666
-0.03336925 0.03733737 0.01443627
-0.00926594 0.04055649 0.00679051
-0.00440334 -0.04432443 0.01061731
-0.00669193 -0.00342442 -0.02117633
0.03742384 0.01474148 0.00421207
-0.03512036 0.01561098 -0.02056166
0.03915171 0.02481516 0.01218250
0.02083945 0.03859787 -0.00011670
-0.04679144 0.02656650 0.01567061
0.00873970 0.03327416 -0.01737869
-0.02151218 -0.01955090 -0.02117633
-0.02551232 -0.05565893 0.01596955
-0.01358284 0.03222815 -0.01559455
-0.00681936 0.04173956 0.00787507
-0.04093417 -0.02680639 0.01387144
-0.02832417 0.03171323 -0.00479926
0.02298063 0.03345938 0.00493886
-0.00428641 0.05724865 0.01621230
0.00661711 -0.02948137 -0.02616980
0.04809036 -0.00734018 0.01371269
-0.00987526 -0.04493288 0.01193031
0.02256563 0.05511058 0.01130722
-0.01176464 -0.06013503 0.01592947
0.00610505 -0.03269376 -0.01959640
0.05747422 -0.02215147 0.01193067
0.05361987 0.01986047 0.01117491
-0.02317597 0.00424765 -0.02117633
0.00444063 0.04349195 -0.00055861
0.02753821 -0.02490401 -0.00587702
0.02613142 -0.04426957 0.01495916
0.01341791 -0.01377852 -0.02117633
-0.00537491 0.04858829 0.01382936
-0.00729651 0.04208969 -0.00395371
0.04281562 0.00853139 -0.00075206
0.01269298 -0.04466743 0.01229980
0.03471973 -0.02145167 -0.01277177
-0.01950672 0.03142375 -0.00652326
0.02991815 0.00349671 -0.02116791
-0.05221672 -0.02328443 0.01118156
-0.04168292 0.01362655 0.00988740
0.04263743 0.00613396 -0.00257122
-0.03575882 -0.01417325 -0.00047745
0.00529249 0.00274220 -0.02617639
-0.05686936 0.02107867 0.01622490
0.02862791 -0.01916972 -0.02512610
0.00422797 0.00948641 -0.02117633
-0.01314879 0.03972327 -0.00775522
-0.04590839 0.03014835 0.01590011
-0.04491650 0.00445173 0.00291118
0.03383943 0.03060996 0.00378201
-0.03576179 -0.01951289 0.00530578
-0.04542767 -0.01156799 0.00570087
0.01388582 -0.05467465 0.01106560
-0.01272616 0.05001388 0.00963130
-0.00392964 -0.03744125 -0.00344368
-0.02079063 -0.03668116 -0.00619939
0.03523085 -0.00485138 -0.01331601
-0.04000178 -0.00040646 0.00373184
-0.01056785 0.00901445 -0.02617639
0.01549026 -0.00069694 -0.02117633
0.02265287 0.03301471 -0.01610558
0.02335330 -0.02021875 -0.02612959
0.00988385 0.05461237 0.01093176
-0.03987843 0.00367420 0.00384385
0.00845887 -0.04378636 0.01066115
-0.02223247 -0.01063041 -0.02617639
-0.03634644 0.00038974 -0.00964069
-0.01053712 0.05125148 0.01527758
-0.02021518 -0.03303115 -0.01985984
-0.02331368 -0.01301240 -0.02117633
-0.01755446 -0.04956928 0.01535890
-0.01098323 -0.04494195 0.01216298
0.03386036 -0.00676649 -0.02509840
0.05194951 0.01765138 0.01077502
0.02102504 0.03613928 -0.00798775
0.02782135 -0.02646860 -0.02064909
-0.04452077 0.00429977 0.01079582
-0.02141508 -0.02030925 -0.02117633
0.04010565 0.01403386 -0.00501138
-0.04590233 -0.01763078 0.01398719
0.02857504 -0.05540068 0.01309681
0.01082059 0.05842007 0.01632089
-0.03753854 0.03231214 0.00833478
-0.02358125 -0.05774096 0.01321117
-0.03822832 0.01974188 -0.00268336
0.05160875 0.03520365 0.01373632
0.02917896 -0.03334251 0.00106810
-0.01626580 -0.02427324 -0.02117633
0.00971321 -0.04511628 0.01206284
0.05939655 -0.00090478 0.01130244
0.02193949 -0.03400669 -0.01429628
-0.02275467 0.05039361 0.01088924
0.03651936 -0.02304041 -0.00226689
0.01878890 0.00691739 -0.02617639
-0.01353721 -0.03820365 -0.01399454
0.04013378 0.04441636 0.01632291
-0.05432224 -0.02842092 0.01591097
0.04833253 -0.01445366 0.01459531
0.02284709 0.04691048 0.01524143
-0.04631241 -0.03261313 0.01616666
0.02421337 0.04736436 0.01549965
0.01193541 0.04289571 0.00158313
0.00617379 -0.04742320 0.01323754
0.05347446 -0.00218749 0.01558711
-0.02262105 -0.02275898 -0.02072070
0.00637260 0.01474624 -0.02117633
0.05995158 -0.01519314 0.01550034
0.03451774 -0.02340599 -0.00839733
-0.04840096 -0.01118703 0.01423546
-0.03663469 0.02411934 -0.00006152
0.03219800 0.02663082 -0.00810001
-0.04235199 0.00325440 -0.00496414
-0.03551410 -0.02279757 0.00778657
0.03559426 0.00518855 -0.01155781
0.04730281 0.00035882 0.00620041
-0.03321133 0.02828606 -0.00075252
0.06197081 -0.00737743 0.01329064
0.05464736 0.02008336 0.01125618
-0.04416960 -0.03627457 0.01117528
-0.01594268 0.04614004 0.01379804
0.01638445 0.05853217 0.01145153
-0.01376029 0.03680250 0.00190813
-0.02178303 -0.03468201 -0.01192541
-0.03286762 0.00950976 -0.01773860
-0.05134494 0.01264162 0.01543080
0.06213039 0.00607962 0.01339342
-0.01786840 0.00850523 -0.02617639
0.05961492 0.01778154 0.01268380
-0.03816821 -0.01787055 -0.00622883
-0.01377340 0.03837231 -0.01300768
-0.04218582 0.00774250 0.00871586
-0.03012885 0.03289309 0.01063680
0.02697386 0.03536770 0.00146462
-0.00946817 -0.04237718 -0.00138337
-0.05479661 0.00046877 0.01076339
0.03609716 0.04735483 0.01632151
-0.00786012 -0.00298506 -0.02117633
0.03805249 -0.03243713 0.00867710
0.02258865 -0.00499662 -0.02617639
0.02907084 -0.02863026 -0.01278594
0.01002939 0.00867656 -0.02117633
0.02952324 -0.02967489 -0.00771531
-0.00940537 0.05463327 0.01092685
-0.03830688 0.04613554 0.01132343
0.01044750 -0.00962277 -0.02617639
-0.02544312 0.00102103 -0.02117633
-0.02396315 -0.02511637 -0.01635586
-0.00995811 0.05298844 0.01052760
-0.01422823 0.03212525 -0.01508833
-0.04190888 0.00999750 0.00893538
0.05515590 -0.02815274 0.01226105
-0.05734553 0.01459816 0.01129447
-0.03863400 -0.00530163 0.00114954
-0.02026120 -0.02912165 -0.01355975
0.00567709 -0.00885834 -0.02117633
-0.01566940 0.03785711 0.00569911
-0.00102742 0.01122958 -0.02617639
0.05249130 0.00206891 0.01532952
