# .PCD v0.7 - Point Cloud Data file format
VERSION 0.7
FIELDS x y z
SIZE 4 4 4
TYPE F F F
COUNT 1 1 1
WIDTH 1000
HEIGHT 1
VIEWPOINT 0 0 0 1 0 0 0
POINTS 1000
DATA ascii
-0.00602057 -0.02023462 -0.00059616
0.00491392 0.00570743 -0.00010299
0.00491392 0.06002390 0.00050553
0.00481831 -0.03404922 -0.00049992
-0.00434222 -0.05280903 -0.00049992
0.00943076 -0.05763800 0.00050007
-0.00470565 -0.06946898 0.00050007
-0.00518001 -0.01172091 0.00058920
-0.00281427 0.03141473 0.00377828
-0.00220656 -0.05418859 -0.00049992
0.00451075 -0.00767131 -0.00145792
0.00467159 0.06362577 0.00127531
0.00377971 0.02921634 -0.00218820
0.00278819 0.01330152 -0.00290918
-0.00511901 -0.00501192 0.00237628
-0.00325492 0.02095685 0.00363662
0.00448104 -0.01972309 0.00050007
-0.00698818 0.06582079 0.00006181
-0.00108180 -0.02396250 0.00050007
0.00506820 -0.02586989 -0.00049992
0.00491393 -0.00434236 0.00012776
0.00203514 0.03706355 0.00332995
0.00051338 0.01275585 0.00381488
-0.00494312 0.01648609 -0.00286412
0.00172651 -0.04816918 0.00050007
0.01222161 -0.03597317 0.00045532
0.00279047 -0.07745432 -0.00049992
0.00302648 -0.00887570 0.00238190
-0.00623242 -0.02238033 -0.00074590
-0.00153998 0.08355667 0.00397480
0.00378190 -0.05769634 -0.00049992
-0.00698818 0.06026671 0.00029488
-0.00015926 -0.07937728 -0.00049992
-0.00217702 -0.05330251 -0.00049992
0.00166939 0.02833754 0.00346837
0.00083371 0.07948583 0.00307231
-0.00817819 -0.06229978 0.00077168
-0.00610579 -0.03797235 -0.00099992
-0.00572559 -0.07457763 0.00050007
0.00209650 -0.06970990 -0.00049992
-0.00777945 -0.07503669 0.00050007
0.00220895 0.03359221 0.00323286
-0.00658629 0.05012723 0.00145657
0.00491392 0.05641495 -0.00021910
-0.00132184 -0.05088179 -0.00049992
-0.00317400 -0.04686762 -0.00049992
0.01012304 -0.03719413 0.00050007
0.00491392 0.02387208 0.00085562
-0.00826031 -0.06753795 -0.00012154
-0.00261415 -0.04750503 0.00050007
0.00356130 0.04891479 0.00236464
0.00759989 -0.03435362 -0.00049992
0.00282179 -0.07484649 -0.00049992
-0.00536816 -0.03066749 -0.00099992
-0.00316762 -0.07830348 -0.00049992
0.00126286 -0.06247861 0.00050007
0.00104875 0.05336296 -0.00368394
0.00462207 0.02337993 -0.00133145
0.00455801 0.04296763 -0.00140422
-0.00698818 0.07397763 0.00095824
0.00636937 -0.06814064 0.00050007
0.00659278 -0.05075750 0.00050007
-0.00622254 -0.02821128 -0.00099992
0.00506288 -0.05392225 -0.00049992
0.01130231 -0.02946033 0.00043192
-0.00532536 0.02516970 -0.00261493
0.00316723 -0.06532320 0.00050007
-0.00005574 -0.06253891 -0.00049992
-0.00698818 0.07127189 0.00013853
0.00503706 -0.05204665 0.00050007
-0.00691204 0.05954498 -0.00108641
-0.00114059 -0.03860467 -0.00049992
0.00110402 -0.02084854 0.00050007
0.00326734 0.07489102 -0.00260182
0.00442626 -0.02990456 0.00050007
-0.00115088 0.02214625 0.00397336
0.00360137 -0.04542917 -0.00049992
-0.00068691 -0.02756711 -0.00049992
-0.00087687 0.02923192 0.00397336
0.00991414 -0.05377121 0.00050007
0.00619610 -0.06181226 -0.00049992
-0.00635179 -0.02358933 0.00012071
-0.00029633 0.03374724 0.00396158
0.00916778 -0.05753333 0.00050007
0.00157596 -0.02360059 -0.00049992
-0.00612709 0.05032342 0.00196782
0.00057306 0.01030335 -0.00380552
-0.00520508 0.06116608 -0.00271204
0.00426744 0.01518635 -0.00173429
0.00001206 -0.07022785 0.00050007
-0.00617216 0.07316255 0.00192700
0.00675100 -0.03260777 0.00050007
-0.00356949 -0.00684132 0.00100005
-0.00537188 0.06568005 0.00257750
-0.00061704 0.03726172 0.00397336
-0.00588167 -0.07526965 -0.00049992
0.00390898 -0.05500278 0.00050007
-0.00154025 0.03620003 -0.00398143
0.00232946 -0.04976878 0.00050007
0.00642068 -0.04137563 0.00050007
0.00973101 -0.04790667 -0.00049992
0.00427654 0.02545064 0.00172408
0.00524253 -0.02896107 0.00050007
-0.00158572 0.05244912 0.00397937
-0.00323334 -0.03480285 -0.00049992
-0.00409025 -0.01457671 0.00100005
-0.00613510 0.03135936 -0.00196123
0.00431639 -0.06479036 -0.00049992
0.00534532 -0.01481405 0.00050007
-0.00747776 -0.06754389 -0.00067627
-0.00698818 0.08277490 0.00067023
0.00491392 0.01042243 -0.00053083
0.00368741 -0.00918922 -0.00137732
0.00596023 -0.06295935 0.00050007
0.00618445 -0.03696988 -0.00049992
-0.00153551 -0.07641068 -0.00049992
0.00462989 0.03492755 -0.00132257
-0.00698817 0.02584618 0.00002205
0.00182024 0.02446644 -0.00341265
-0.00340649 0.06628308 -0.00358294
-0.00665755 0.00607129 -0.00137549
-0.00610142 0.07123652 -0.00198843
-0.00495100 -0.02555535 -0.00099992
-0.00640883 0.03607142 -0.00165803
-0.00554799 -0.04219247 -0.00049992
-0.00227135 0.05085183 -0.00388250
-0.00550607 0.02931041 0.00246917
0.00017359 0.05966912 -0.00389142
0.00333202 -0.00963752 0.00100005
-0.00412551 -0.05477315 0.00050007
-0.00235034 0.03014250 0.00385725
0.00854129 -0.01933099 0.00033785
0.00491391 0.07793490 0.00056885
-0.00154626 -0.02289737 -0.00049992
0.00413038 0.07780408 0.00189010
0.00540350 -0.05104188 -0.00049992
0.00830404 -0.05805030 0.00050007
-0.00766885 -0.05906342 0.00088419
0.00491392 0.02348129 0.00059374
0.00213656 -0.00741621 0.00327330
-0.00233152 -0.04654847 -0.00049992
0.00476303 0.05836039 -0.00117132
-0.00235767 0.05918675 0.00386686
0.00376020 -0.06058682 0.00050007
0.00048419 0.07766833 0.00256196
-0.00606837 -0.07349198 0.00050007
0.00140969 -0.04900742 -0.00049992
-0.00678797 0.04635297 -0.00122735
0.00311115 -0.05346999 -0.00049992
-0.00262051 0.01097034 -0.00381307
0.00456686 0.04433485 -0.00139416
0.00394289 0.04495545 0.00205658
-0.00702207 -0.03274420 0.00100005
-0.00119939 -0.03131213 0.00050007
0.00213221 -0.05282031 -0.00049992
-0.00318718 0.01101269 0.00366055
-0.00568142 0.02706271 -0.00232748
-0.00330529 0.01352375 -0.00361869
0.00457157 -0.07411104 0.00050007
0.00142063 -0.06671599 0.00050007
0.00306240 0.08325283 0.00275615
-0.00025587 -0.04625498 -0.00049992
0.00428851 0.04171434 -0.00171036
0.00290191 0.00546998 -0.00284567
-0.00735240 -0.04469495 -0.00099992
-0.00698817 0.04276073 0.00016511
-0.00214058 -0.01125446 0.00050007
-0.00269305 -0.05522219 -0.00049992
0.00319436 -0.02593901 0.00050007
-0.00103676 0.07120966 -0.00399689
-0.00040094 -0.06348198 0.00050007
-0.00490163 -0.00949460 -0.00099992
-0.00529455 -0.05600604 0.00050007
-0.00051218 -0.00325820 0.00397336
0.00261508 -0.02099784 0.00050007
0.00698529 -0.06081979 -0.00049992
-0.00185989 -0.05616727 -0.00049992
0.00491391 0.07277851 0.00097957
-0.00321105 -0.05193103 -0.00049992
-0.00262499 -0.02317443 -0.00049992
0.00072046 -0.01508470 0.00050007
0.00490499 -0.01415490 0.00050007
-0.00570141 -0.00473569 0.00015672
0.00040472 0.02363780 0.00383336
0.00491392 0.05854757 -0.00015019
-0.00440787 0.02872509 -0.00316307
0.00242075 -0.03769871 -0.00049992
-0.00698818 0.05363921 -0.00063831
-0.00541004 0.08248440 -0.00254658
0.00476504 -0.05184341 -0.00049992
-0.00613056 -0.04577633 -0.00099992
0.00126944 0.04995579 0.00361144
0.00455997 -0.06558653 -0.00049992
0.00063646 -0.03957505 0.00050007
-0.00161565 0.03270029 -0.00397700
0.00639121 -0.04461647 0.00050007
-0.00448788 0.03096680 -0.00311838
0.00048903 0.07360121 -0.00383985
0.00222006 0.00163857 0.00322666
0.00518267 -0.03630768 0.00050007
0.01161911 -0.04864466 0.00050007
-0.00040184 -0.04844577 -0.00049992
-0.00288002 -0.02444706 0.00050007
-0.00355718 -0.01870503 0.00050007
0.00157400 -0.03129191 0.00050007
-0.00422939 0.07123398 -0.00326276
0.00214533 -0.02877342 -0.00049992
0.00097552 0.07906924 -0.00065554
0.00341685 0.05908850 0.00248125
-0.00345484 -0.01080206 -0.00099992
-0.00414761 0.02891313 -0.00330843
-0.00167348 -0.02340954 -0.00049992
-0.00646555 0.02788884 -0.00159359
-0.00182689 -0.07795215 -0.00049992
-0.00093312 0.03981061 0.00397336
0.00467782 -0.00318595 0.00126825
0.00366180 0.02467006 0.00228350
-0.00634255 -0.07771440 0.00050007
0.00102831 -0.04301399 -0.00049992
-0.00535863 -0.05875044 0.00050007
-0.00456395 -0.06949802 0.00050007
0.00486053 -0.04765934 -0.00049992
-0.00431414 -0.06989918 0.00050007
0.00191829 0.05843183 0.00337726
0.00478629 -0.01976377 0.00050007
-0.00604639 0.05328670 0.00203297
-0.00698817 0.04535391 -0.00009029
0.00171640 -0.00087766 -0.00344732
0.00756016 -0.04846731 0.00050007
0.00102930 0.00292867 0.00369125
0.01232594 -0.04870804 -0.00026778
-0.00608323 -0.05625702 -0.00083941
-0.00526926 -0.04953343 -0.00049992
0.00777605 -0.07046157 -0.00022880
-0.00314174 0.01873591 0.00367660
0.00296251 0.00528966 -0.00281182
0.00424929 0.03343919 -0.00175491
-0.00108290 -0.02631774 0.00050007
0.00690893 -0.05363488 0.00050007
0.00850664 -0.02336283 0.00050007
-0.00425180 -0.02533490 0.00050007
-0.00138740 -0.05856334 0.00050007
-0.00414886 -0.04276131 -0.00049992
-0.00214790 -0.03090713 0.00050007
-0.00783959 -0.04378432 0.00095190
0.00310336 -0.01589683 0.00050007
0.00408037 0.07196898 -0.00194547
-0.00526506 0.06165410 0.00266373
-0.00020466 0.08379614 0.00353942
-0.00537331 -0.03565391 -0.00049992
0.00412082 -0.05107257 -0.00049992
-0.00316235 -0.07668610 0.00050007
0.00545682 -0.03771496 -0.00049992
-0.00509665 -0.01561175 0.00100005
-0.00071984 -0.07985002 0.00050007
-0.00698817 0.04161751 0.00064200
-0.00278654 0.06993277 -0.00378354
0.00277427 0.00233409 0.00291710
0.00281899 0.05584921 -0.00289198
-0.00049459 0.02856590 0.00397336
-0.00689731 -0.02911471 -0.00016757
0.00676264 -0.05563313 0.00050007
0.00378534 0.06791927 -0.00218364
-0.00060006 -0.06958951 -0.00049992
-0.00304626 0.03426878 0.00371033
0.00235745 -0.00998037 -0.00049992
0.00288233 0.06350658 0.00285674
-0.00568053 -0.01679049 -0.00080964
0.00433818 -0.02641409 0.00050007
-0.00246944 -0.00432134 0.00383549
0.00326736 0.07952710 0.00260193
-0.00249526 0.01576885 -0.00383558
-0.00646004 -0.00158411 -0.00159985
0.00193060 -0.01779088 -0.00049992
0.00353585 0.01264982 0.00238519
-0.00156849 -0.00375586 0.00397336
-0.00594115 -0.07786355 0.00050007
0.00341112 0.04726412 0.00248588
-0.00317960 0.02675616 -0.00366309
-0.00698818 0.06596095 -0.00032279
0.00288434 0.01428143 -0.00285549
-0.00217535 -0.05071688 0.00050007
-0.00510160 0.00251073 -0.00277561
0.00431339 0.02096587 0.00168222
-0.00403340 0.05567450 -0.00336146
-0.00460435 0.06311037 -0.00305334
0.00428641 -0.07344913 -0.00049992
-0.00137552 0.06480509 -0.00399096
0.00032411 0.05689613 -0.00386744
0.00423086 -0.02873711 0.00050007
-0.00332164 0.08379614 -0.00045081
0.00262003 0.04431186 -0.00300310
-0.00125209 0.02863571 0.00398069
-0.00466384 -0.00552460 -0.00045578
0.00491392 0.05223054 -0.00087703
-0.00033820 0.01200161 0.00396570
-0.00421990 -0.03799644 -0.00049992
-0.00301179 -0.02047258 0.00050007
-0.00570170 0.06061155 0.00231124
-0.00314968 0.08379614 -0.00013602
0.00142297 -0.01415140 0.00050007
-0.00091379 -0.02718071 -0.00049992
-0.00644640 0.00560257 0.00161547
-0.00541004 0.04236070 -0.00254657
-0.00014270 -0.03953809 -0.00049992
-0.00534495 -0.01339152 -0.00082813
-0.00398920 -0.01059202 0.00100005
-0.00195923 -0.00593912 0.00392291
0.00491391 0.06734494 0.00088893
0.00491391 0.06702509 0.00009950
0.00133491 -0.03979762 -0.00049992
-0.00351255 0.05627427 0.00354562
-0.00098506 -0.00333920 0.00397336
-0.00413358 0.08261320 -0.00331627
0.00204182 -0.06359996 0.00050007
0.00083583 0.06394982 0.00375889
-0.00022681 0.03741993 0.00395312
-0.00393687 0.06218896 0.00339573
-0.00702810 -0.04114859 -0.00099992
-0.00252749 0.05848163 -0.00383380
-0.00489742 0.03870536 0.00288978
0.00367190 -0.02131944 -0.00049992
-0.00333371 0.04545456 -0.00360865
-0.00173378 -0.02792849 -0.00049992
-0.00385225 -0.06905194 0.00050007
0.00386009 0.08284957 0.00212342
-0.00668977 0.03918718 0.00133902
-0.00611257 0.06310941 0.00197954
-0.00277285 -0.01580788 -0.00049992
-0.00461640 0.00244582 0.00304675
-0.00589347 -0.00097104 0.00215641
-0.00297011 -0.00089479 0.00373723
0.00491392 0.05823651 -0.00074936
0.00121294 -0.03041696 -0.00049992
0.00903714 -0.05478298 0.00050007
-0.00621303 0.04230589 -0.00188046
0.00044924 0.02973324 -0.00383569
-0.00625759 -0.03308980 -0.00099992
0.00804523 -0.03335885 0.00050007
0.00860584 -0.02135901 -0.00049992
0.00138348 -0.05383879 0.00050007
0.00350028 0.08079200 0.00241389
0.00212271 -0.04248547 0.00050007
-0.00303898 -0.03934874 -0.00049992
-0.00143817 0.00118752 0.00397336
-0.00452291 -0.05963485 0.00050007
-0.00241079 0.00247476 0.00384581
0.00153236 0.00572605 0.00351387
0.00061250 0.07980184 -0.00154976
-0.00003383 -0.03666816 -0.00049992
0.00225385 -0.07808420 -0.00049992
-0.00766355 -0.03915090 0.00052186
0.00468622 -0.00441155 -0.00125859
0.00354047 0.03989459 0.00238145
0.00491392 0.05516733 -0.00080308
-0.00622195 0.05767756 0.00187044
0.00609673 -0.04009730 0.00050007
-0.00603546 0.05152178 0.00204179
0.00419287 0.08341520 -0.00181899
0.01074807 -0.04156593 0.00050007
-0.00683491 -0.05921815 -0.00088273
-0.00127585 0.07751857 -0.00306422
0.00875604 -0.05522009 0.00050007
-0.00566405 0.05432004 0.00234163
0.00288001 -0.05963028 0.00050007
0.00638625 -0.03933222 0.00050007
-0.00595762 0.07943863 -0.00210452
-0.00123063 0.04659306 -0.00398939
-0.00318836 -0.00027404 -0.00366000
-0.00049303 0.04040029 -0.00397903
0.00848470 -0.02623417 0.00050007
0.00074540 0.01574388 -0.00378073
0.00201409 0.07552803 0.00334170
0.00096321 0.07846105 -0.00348238
-0.00698818 0.08212401 0.00033337
0.00469213 0.06717040 0.00125198
-0.00427981 -0.02666826 -0.00049992
-0.00179513 0.04851274 0.00395316
-0.00496360 -0.07722043 0.00050007
0.00379647 0.07968397 0.00217477
0.00442484 0.00152645 0.00155562
0.00241747 0.00960330 -0.00311624
0.00430271 -0.02059712 0.00050007
0.00422921 0.00234035 0.00177784
0.01186476 -0.04934832 -0.00049992
-0.00831811 -0.07196256 -0.00055873
-0.00014771 0.03168625 -0.00392985
-0.00101505 0.04910647 -0.00398491
-0.00501426 0.00085910 0.00282452
0.01139577 -0.04970651 -0.00049992
-0.00698818 0.07098696 0.00037140
-0.00698817 0.04747206 0.00069960
0.00468860 0.03955724 0.00125600
-0.00476977 0.06571967 0.00296108
-0.00540689 -0.07091165 0.00050007
0.00185529 0.01926633 0.00340032
-0.00433010 -0.03777183 0.00050007
-0.00301040 0.06641319 0.00372300
0.00461797 -0.02472869 0.00050007
0.00239214 -0.02777662 0.00050007
-0.00444010 0.02503533 -0.00314507
0.00394720 0.06027209 -0.00205298
-0.00046335 -0.03018899 -0.00049992
0.00491391 0.07340029 0.00005952
0.00793896 -0.03390678 0.00050007
-0.00508044 0.04507318 0.00278755
0.00662082 -0.04381727 -0.00049992
-0.00698818 0.07413463 -0.00020263
-0.00014090 -0.02669249 0.00050007
0.00170025 0.00692484 0.00345470
0.00788274 -0.02051655 -0.00049992
0.00504501 -0.02389058 -0.00049992
-0.00585815 0.02170660 0.00218493
0.00682834 -0.06471517 0.00050007
-0.00691776 0.04333498 -0.00107991
0.01107096 -0.05505465 0.00050007
-0.00219180 0.08379614 0.00362246
0.00410044 0.01812306 0.00192412
-0.00247580 0.01111251 -0.00383792
-0.00296478 0.01023038 0.00373911
0.00038380 -0.06629836 0.00050007
0.00975732 -0.05681861 0.00050007
0.00194945 0.03831318 -0.00336557
-0.00296479 -0.00798017 -0.00099992
0.00307678 0.07733366 0.00274812
-0.00698817 0.00474623 -0.00047062
-0.00163344 -0.06057620 -0.00049992
0.00052138 0.06119944 -0.00383178
-0.00549670 0.07911043 -0.00247662
-0.00068593 -0.02155571 -0.00049992
-0.00464775 -0.06582373 -0.00049992
-0.00502495 -0.01015038 0.00018927
0.01026997 -0.06434272 0.00031224
-0.00541537 0.03706338 -0.00254227
-0.00052070 0.03984529 0.00397336
-0.00066445 -0.02329879 -0.00049992
-0.00290793 -0.06696602 0.00050007
0.00715396 -0.05827932 0.00050007
0.00103080 -0.04404828 -0.00049992
-0.00686048 0.00224363 0.00114509
0.00631859 -0.02032362 0.00050007
-0.00319314 -0.07040284 -0.00049992
0.00279879 0.03613769 -0.00290326
0.00583652 -0.06863608 -0.00049992
0.00367804 0.03196910 -0.00227027
-0.00449126 0.07351125 0.00311666
-0.00147177 -0.05319062 0.00050007
-0.00631960 -0.04170566 0.00100005
0.01148178 -0.02961484 -0.00038107
0.00279996 0.06454416 -0.00290261
0.00579142 -0.03067825 -0.00049992
0.00156795 -0.02400407 0.00050007
-0.00065287 0.07730622 -0.00346136
-0.00059580 -0.04194709 -0.00049992
-0.00698817 0.04005130 -0.00021033
-0.00025669 0.06605320 0.00395762
0.00491392 0.05263390 -0.00060041
0.00486205 0.02276663 -0.00105885
0.00798809 -0.03994777 -0.00049992
-0.00301202 -0.00601137 0.00158884
0.00621768 -0.01776575 0.00050007
-0.00657979 0.02373103 0.00146394
0.00142553 -0.02907891 0.00050007
0.00352671 0.00943017 -0.00239245
-0.00155686 -0.06320933 -0.00049992
-0.00077210 0.03356295 -0.00398056
0.00454275 0.06015493 0.00142167
0.00040776 -0.01522138 -0.00049992
0.00551070 -0.06171728 0.00050007
-0.00183728 -0.02635245 0.00050007
0.00364396 -0.00999383 -0.00035667
0.00447554 -0.04847218 -0.00049992
0.00031394 -0.03546222 0.00050007
-0.00172686 -0.04049416 0.00050007
-0.00370052 -0.06634234 0.00050007
0.00212427 0.05994091 -0.00327999
-0.00091488 -0.04607760 0.00050007
0.00507497 -0.02300769 0.00050007
0.00491392 0.03410039 0.00023217
-0.00232990 0.07256019 -0.00387213
0.00328776 0.07699770 0.00258546
0.00853621 -0.04948403 -0.00049992
0.00491393 -0.00378831 -0.00046656
0.01245257 -0.03907739 0.00001373
-0.00698817 0.04272497 0.00005660
-0.00186152 0.07818057 0.00243506
0.00027988 0.03955093 -0.00386446
-0.00535458 0.05705848 0.00259147
-0.00006488 0.08022773 -0.00296726
0.00278725 -0.07490904 0.00050007
-0.00563954 0.07219557 0.00236142
0.00720096 -0.04560791 0.00050007
-0.00698818 0.08260590 -0.00012001
-0.00106255 -0.07568391 -0.00049992
0.00806219 -0.04074586 0.00050007
-0.00560261 -0.03799635 0.00072734
0.00000286 0.03873988 0.00391657
0.00076522 -0.06239788 0.00050007
-0.00473184 -0.03525646 -0.00049992
-0.00004017 0.02359849 0.00391566
-0.00435179 0.07718455 -0.00319439
0.00122351 0.05163830 0.00362784
0.00155052 0.01607767 -0.00350616
-0.00419556 -0.02210542 0.00055726
-0.00195213 0.07146533 0.00393760
-0.00230783 0.01774195 -0.00386816
0.00455334 0.01133993 -0.00140953
0.00423005 0.06391637 -0.00177676
0.00285452 -0.06023315 0.00050007
0.01082959 -0.03105126 -0.00049992
0.00622302 -0.04452614 -0.00049992
-0.00453837 -0.01372340 0.00100005
0.00234637 -0.05151234 0.00050007
0.00049057 -0.07319316 0.00050007
-0.00353674 0.07434384 -0.00353692
-0.00486960 -0.00913350 -0.00099992
-0.00522577 -0.02146962 -0.00099992
0.00925993 -0.05000702 -0.00049992
0.01247976 -0.05108674 -0.00049992
0.00142721 0.04305918 -0.00355586
0.00185539 -0.06099837 0.00050007
0.01279890 -0.04451828 0.00035292
0.00912540 -0.02198937 -0.00008393
0.00491920 -0.05830353 0.00050007
-0.00392080 0.06533497 -0.00340123
0.00262123 0.01349925 0.00300258
-0.00603050 0.04599939 -0.00204568
0.01262604 -0.04667287 0.00038810
-0.00408862 -0.05694531 -0.00049992
-0.00232007 0.02489980 -0.00386759
0.00555439 -0.03744877 0.00050007
-0.00290817 -0.07310694 -0.00049992
-0.00474005 -0.07605484 -0.00049992
-0.00405064 0.06496380 -0.00335537
-0.00420624 -0.02383366 -0.00049992
-0.00124812 0.08009318 0.00038119
0.00380262 0.07097085 -0.00216969
0.00491391 0.06814079 0.00099186
-0.00670249 0.08379614 -0.00107113
0.00778737 -0.04927974 0.00050007
0.00446152 0.00729148 -0.00151383
-0.00137537 -0.00365990 0.00397336
-0.00464935 -0.00129534 0.00302834
-0.00393526 0.03630277 -0.00339613
0.00448641 -0.06983691 -0.00049992
0.00388240 -0.00208739 0.00210542
0.00196919 -0.04343185 0.00050007
-0.00497043 0.06527044 -0.00284887
-0.00412899 0.01829025 -0.00331883
-0.00168057 -0.02851498 0.00050007
0.00135135 -0.03236729 -0.00049992
-0.00345828 0.07797176 0.00356479
-0.00073612 -0.07743660 0.00050007
-0.00555177 -0.04774696 -0.00049992
-0.00278651 -0.00611837 0.00364795
-0.00660693 0.04398431 -0.00143300
0.00037192 -0.01483441 -0.00049992
-0.00816976 -0.06176210 0.00007864
-0.00605604 0.05020214 -0.00202506
0.00007164 0.02385727 0.00389046
0.00300137 0.04121008 0.00279024
-0.00494256 -0.04814453 0.00050007
0.00282697 0.02646522 -0.00288752
-0.00144161 0.05648588 0.00398760
0.00271420 0.07004524 0.00295065
-0.00087350 -0.00813259 -0.00089881
0.00167907 -0.04783234 -0.00049992
-0.00632722 -0.04886264 -0.00097853
0.00022567 0.00982862 -0.00386502
-0.00518726 -0.01808447 -0.00099992
-0.00566722 0.03402706 0.00233907
0.00491393 -0.00644152 -0.00086881
0.00320697 0.00031180 0.00265069
-0.00500262 -0.00239617 0.00283102
-0.00034228 0.04915802 0.00396667
0.00223450 -0.05782347 0.00050007
-0.00007352 0.01545958 -0.00391652
-0.00293049 -0.00929208 -0.00059052
-0.00631976 -0.02326494 0.00031399
0.00426524 -0.02525597 0.00050007
-0.00698818 0.08061341 0.00089689
0.00702353 -0.05919969 0.00050007
-0.00698817 0.03688779 0.00057898
-0.00313099 0.07452816 -0.00368027
0.00902681 -0.03019816 0.00050007
-0.00083343 0.06480505 0.00398836
0.00475745 -0.00613089 -0.00117767
-0.00623052 0.02842577 -0.00186058
0.00472805 0.07930415 -0.00121106
0.01268719 -0.04142886 0.00016477
0.00057570 0.04577702 0.00380374
-0.00437444 0.05952894 -0.00318174
0.00416496 0.02133687 0.00185083
-0.00301069 -0.03316284 -0.00049992
-0.00170383 0.07208216 -0.00396978
-0.00128870 0.00655390 0.00397336
0.01006654 -0.05755750 -0.00049992
0.00320818 -0.02723323 -0.00049992
0.00321681 0.00517104 0.00264275
-0.00189174 -0.07474111 -0.00049992
-0.00222800 0.06022969 0.00389202
0.00434500 -0.07010249 -0.00049992
-0.00622358 0.02335632 -0.00186846
-0.00692912 0.03453073 0.00106713
-0.00511663 -0.04688870 0.00050007
-0.00068659 0.05681172 -0.00398475
0.00271626 -0.05555388 -0.00049992
-0.00698817 -0.00070121 -0.00002735
-0.00698818 0.05509446 0.00050560
-0.00160717 0.07572884 0.00397758
-0.00698818 0.06858177 0.00031514
-0.00560634 -0.07800829 0.00050007
-0.00193361 0.06085637 -0.00394158
-0.00388763 -0.00199715 0.00341312
-0.00519392 0.07022106 0.00272117
-0.00530287 0.04456175 0.00263321
-0.00359690 0.01217632 -0.00351566
-0.00698448 0.06856572 0.00100425
-0.00175034 -0.01015381 0.00050007
-0.00040064 0.05531723 -0.00397217
-0.00792654 -0.04627676 -0.00065299
-0.00675012 -0.04964091 0.00097142
-0.00295895 -0.00473821 -0.00374105
-0.00491839 -0.00006623 -0.00287793
0.00474763 0.03701085 -0.00118882
0.00047389 0.05637989 -0.00384088
0.00141171 0.02562267 0.00355860
-0.00398601 0.01540202 0.00337837
-0.00676656 0.08379614 -0.00026317
0.00001316 -0.03731321 -0.00049992
0.00020243 -0.00753613 -0.00113957
0.01173269 -0.04400291 -0.00049992
-0.00504696 0.00339634 -0.00280612
-0.00249825 -0.03975643 0.00050007
-0.00247806 -0.06324243 -0.00049992
0.00938545 -0.06462455 0.00050007
-0.00360197 0.06870305 0.00351403
-0.00410880 0.08379614 -0.00156038
0.00455082 -0.04262871 -0.00049992
0.00113965 0.02330170 0.00365445
-0.00522670 0.00681451 0.00269470
-0.00354036 -0.07123682 0.00050007
-0.00064094 0.03998338 0.00397336
-0.00219582 0.04671746 0.00388767
-0.00069333 0.05231547 -0.00398394
0.00223407 -0.05416469 0.00050007
-0.00002250 -0.05777346 0.00050007
-0.00466601 0.05882744 -0.00301890
0.00287030 0.04367768 -0.00286332
-0.00790863 -0.06947177 -0.00062496
-0.00136269 0.08001577 -0.00364821
-0.00239194 0.05556198 -0.00386009
-0.00206064 -0.00997257 -0.00049992
-0.00459374 -0.05568279 -0.00049992
0.00418488 -0.02371923 0.00050007
0.00301580 -0.04825022 -0.00049992
-0.00608389 0.03573434 -0.00200257
-0.00114735 -0.02874033 0.00050007
0.00098428 -0.04777648 0.00050007
0.00311566 -0.00419315 -0.00272429
-0.00671972 0.03589715 0.00130500
-0.00621094 -0.07049617 -0.00049992
-0.00123897 0.06149960 -0.00399401
0.00199512 -0.07840420 0.00050007
-0.00443483 0.00577063 0.00314817
-0.00825350 -0.06710342 0.00010531
-0.00634999 0.06896283 -0.00172488
-0.00493907 0.07323744 -0.00286639
0.00456415 0.03536002 0.00139737
0.00331273 0.00666579 0.00256531
-0.00183444 0.00430856 -0.00394649
0.00362000 0.01771939 -0.00231713
-0.00615741 -0.06098941 0.00077511
0.00491392 0.04366518 -0.00061129
0.00300549 -0.04539651 -0.00049992
0.01269177 -0.03998460 0.00007637
-0.00155071 -0.08005286 -0.00049992
-0.00621564 -0.06096807 -0.00085119
0.01190760 -0.05431927 -0.00003437
-0.00527459 0.08115638 0.00265605
0.00284625 0.05570042 -0.00287675
0.00292028 0.02036984 -0.00283541
0.00475871 0.02909550 0.00117636
-0.00362337 0.02419803 -0.00350631
0.00455644 0.02328653 -0.00140601
-0.00492139 -0.01892117 -0.00099992
-0.00698817 0.00134635 -0.00012282
0.00106402 0.00591521 -0.00367789
-0.00697291 0.01474499 0.00101737
0.00418191 0.04388732 -0.00183145
0.00323437 -0.00663235 -0.00262845
0.00239408 0.04130535 0.00312946
0.00543832 -0.05082350 -0.00049992
-0.00022532 0.01333529 -0.00394246
-0.00664424 0.06696381 0.00139075
0.00200445 0.05685518 -0.00334553
0.00417985 -0.03481083 0.00050007
0.00099372 -0.07922172 0.00041744
0.00642380 -0.03050429 -0.00049992
-0.00003999 -0.00819508 -0.00099992
-0.00453957 -0.03099043 0.00050007
-0.00182675 0.07810335 0.00146685
-0.00688004 0.02123860 -0.00112276
-0.00426733 -0.02178250 0.00100005
-0.00145631 0.08179731 0.00398534
0.01239440 -0.05118539 -0.00003477
-0.00554366 0.02082642 -0.00243870
-0.00136638 0.00043329 -0.00397455
0.00382718 -0.00673157 0.00215000
0.00228673 -0.00388988 -0.00318926
0.00111498 0.06772998 -0.00366963
-0.00018164 -0.06444198 -0.00049992
0.00468638 0.00999637 0.00125852
0.00519957 -0.02378330 -0.00049992
-0.00197981 0.07899228 -0.00360421
-0.00789943 -0.06613735 0.00071355
0.00363206 -0.03429571 -0.00049992
0.00243792 -0.01978917 0.00050007
0.01210590 -0.05003024 0.00020196
0.00456173 -0.00960398 0.00012695
0.00670426 -0.06480447 -0.00049992
0.00395577 0.00635428 0.00204618
0.00026993 -0.00825001 -0.00099992
0.00536772 -0.02092899 -0.00049992
0.00432798 -0.01393114 0.00050007
-0.00508297 0.02272723 0.00278614
0.00701107 -0.03398891 -0.00049992
-0.00045444 0.01685416 0.00397336
-0.00532878 0.00599099 0.00261229
-0.00151643 -0.02311234 0.00050007
0.00484775 -0.03897064 -0.00049992
-0.00108989 0.01941724 0.00397336
-0.00478994 -0.06522406 0.00050007
-0.00170572 -0.03934098 0.00050007
-0.00534963 -0.02371415 -0.00099992
-0.00698818 0.07647107 -0.00047731
-0.00512083 -0.06324556 0.00050007
0.00096630 0.01415330 -0.00371253
0.00339231 -0.01878553 -0.00049992
0.00149864 -0.06951811 -0.00049992
-0.00237690 0.04782453 -0.00386301
-0.00698818 0.07041027 -0.00018809
0.00323547 -0.01809086 0.00050007
0.00205857 0.01417424 -0.00331669
0.00247667 -0.07505396 -0.00049992
0.00394750 -0.04466071 0.00050007
-0.00309335 0.08379614 -0.00227172
-0.00021741 0.06347576 -0.00394300
-0.00642003 0.01089032 0.00164543
-0.00758706 -0.06645189 0.00070534
0.00491392 0.02229559 0.00078406
-0.00151315 -0.04131900 0.00050007
0.00491393 0.00263911 0.00048957
-0.00559606 0.00902284 0.00239651
-0.00518439 -0.05602698 -0.00049992
0.00955903 -0.04094133 0.00050007
-0.00380627 -0.02699702 -0.00049992
0.00672150 -0.06556360 0.00050007
0.00114837 0.02486898 -0.00364835
0.00347060 0.04840574 0.00243786
0.00225027 0.03076866 -0.00320962
-0.00423321 0.02740675 -0.00326062
0.00257334 0.06002730 0.00302933
0.00037443 -0.07235479 0.00050007
0.00006948 0.02767734 0.00389349
0.00434499 0.04078243 0.00164632
0.00226922 0.05452129 -0.00319903
0.00742763 -0.04707334 0.00050007
0.00401491 -0.00118669 -0.00199832
-0.00328962 -0.06942237 -0.00049992
0.01222675 -0.03816374 -0.00044798
-0.00352749 0.05230104 -0.00354019
-0.00294253 0.04933362 0.00374697
-0.00600722 -0.03806334 0.00100005
0.00072770 0.07965211 0.00258736
0.00072524 -0.01404285 0.00050007
-0.00663063 -0.05731132 0.00090054
-0.00533794 -0.01332048 0.00036468
-0.00176374 -0.07895756 0.00050007
0.00143979 -0.02018791 -0.00049992
-0.00252370 -0.04124410 0.00050007
-0.00551852 -0.02789491 0.00100005
-0.00332886 0.00802165 -0.00361036
0.00370445 0.03064646 0.00224907
-0.00176545 -0.00645968 0.00395612
0.00128221 -0.04239183 0.00050007
0.00927519 -0.03912351 0.00050007
-0.00266978 -0.07744273 0.00050007
-0.00424649 -0.00008534 -0.00325320
-0.00698818 0.06527267 0.00043062
-0.00358686 0.01084611 0.00351936
0.00292562 -0.04264280 0.00050007
-0.00472954 0.02852940 0.00298356
-0.00688634 -0.04853112 -0.00098151
-0.00015503 0.07243612 0.00394673
-0.00366918 -0.01677391 0.00053702
-0.00246567 0.05786368 -0.00384579
-0.00690137 0.01929625 -0.00109852
0.00089150 0.08283395 -0.00373989
0.00314343 0.05179850 -0.00270186
0.00582024 -0.05843405 -0.00049992
0.00749737 -0.01893152 -0.00049992
0.01047904 -0.03482404 0.00050007
-0.00520301 0.04274311 0.00271383
-0.00815224 -0.06064452 -0.00036110
0.00086614 -0.04980814 0.00050007
-0.00099276 -0.04763319 0.00050007
0.00974466 -0.02799373 0.00050007
0.00307567 -0.00855596 -0.00274862
-0.00321539 -0.04425495 0.00050007
-0.00451980 0.02009855 0.00310071
-0.00075267 0.00384010 0.00397336
0.00491393 -0.00718973 -0.00065616
-0.00651882 0.05127427 0.00153321
0.00168390 0.03193507 0.00346306
-0.00503775 0.00527224 0.00281140
0.00089123 -0.01280378 0.00050007
0.00070250 -0.05358420 -0.00049992
-0.00359057 0.00141131 -0.00351790
-0.00482847 0.00958048 0.00292829
-0.00639833 -0.02406073 0.00055796
-0.00437109 0.04096266 -0.00318361
-0.00652130 0.04160449 0.00153039
-0.00311044 0.07309702 0.00368766
-0.00635630 0.02941907 -0.00171770
-0.00595215 0.04714214 0.00210904
-0.00803435 -0.06910733 0.00063473
-0.00323872 0.03379000 -0.00364221
0.00151080 0.07586977 -0.00352540
-0.00154068 -0.00670933 -0.00396014
0.00303938 -0.02992482 -0.00049992
0.00436252 -0.01870344 -0.00049992
-0.00024761 -0.04168861 0.00050007
0.00995902 -0.04161142 -0.00049992
-0.00077800 0.05981792 0.00398091
0.00279313 0.06383366 0.00290656
0.00345763 0.01730897 0.00244833
0.00338609 0.06445183 -0.00250596
0.00963462 -0.06237991 -0.00049992
-0.00355815 0.02036981 0.00352951
-0.00708219 -0.04166218 0.00100005
0.00520004 -0.06572450 -0.00049992
-0.00179060 0.05457386 0.00395417
-0.00482103 -0.02820259 0.00100005
-0.00499016 0.03712496 0.00283798
0.00223644 0.07748849 0.00321751
0.00089782 0.01922831 -0.00373679
0.00094931 -0.07587417 0.00050007
-0.00593474 0.00326026 0.00212310
0.00097531 0.02253191 0.00371241
0.00200343 0.03092361 0.00334609
-0.00259611 0.08243810 0.00381867
0.00491392 0.03547123 -0.00030492
-0.00097446 0.02394627 0.00397336
-0.00365447 -0.06345173 0.00050007
-0.00112044 0.03455957 0.00397842
0.00123752 0.07548252 -0.00362498
0.00043869 0.06305803 -0.00384884
0.00095427 0.00713651 -0.00371668
0.00608137 -0.04456137 0.00050007
-0.00003368 0.07179464 -0.00392755
0.00050113 -0.01459785 0.00050007
-0.00451523 0.02541365 0.00310326
-0.00563626 0.05233654 -0.00236395
-0.00208016 -0.03412141 0.00050007
0.00405493 0.03129166 -0.00196601
-0.00213899 -0.03210737 0.00050007
-0.00512742 0.02831808 0.00276131
0.00143651 0.06993037 0.00355362
-0.00811560 -0.06655244 -0.00070230
0.00158163 0.04653653 -0.00349959
0.00586601 -0.07281491 0.00050007
-0.00512948 -0.06339742 -0.00049992
-0.00175365 0.00475171 -0.00396045
0.00712557 -0.02821527 -0.00049992
-0.00004166 -0.00971818 0.00050007
-0.00691248 0.03085047 0.00108602
-0.00203306 0.00591991 -0.00391276
-0.00625990 0.01960616 -0.00182720
0.00399680 -0.06300157 0.00050007
0.00869042 -0.05156640 -0.00049992
0.00091601 -0.07724748 -0.00049992
0.00351981 0.04235379 0.00239813
-0.00151001 -0.06582745 0.00050007
0.00027737 -0.05784630 0.00050007
-0.00157322 -0.02931561 -0.00049992
-0.00245486 -0.07394468 -0.00049992
-0.00439207 0.04953340 -0.00317190
0.00628002 -0.03745798 -0.00049992
-0.00383424 -0.02402991 0.00050007
0.00491391 0.07275902 0.00087456
0.00400374 -0.05728095 0.00050007
-0.00178505 0.07956354 0.00383168
-0.00058974 -0.02147729 -0.00049992
0.00242118 0.00268202 0.00311432
-0.00085950 -0.02731056 -0.00049992
0.00413904 -0.00918320 -0.00188016
0.00020900 0.05791963 -0.00388542
0.00521774 -0.05876576 0.00050007
-0.00045434 -0.03993446 0.00050007
-0.00394982 0.00570682 0.00339115
0.00222959 0.02199537 0.00322134
0.00491393 -0.00900327 -0.00030373
-0.00127494 0.02483303 -0.00397894
-0.00221901 0.05654603 0.00389339
0.00358096 0.07444549 -0.00234864
-0.00340083 0.05200192 -0.00358494
-0.00146798 -0.00743244 -0.00099992
-0.00350156 0.03780691 -0.00354935
-0.00532485 -0.01570895 -0.00099992
0.00283818 0.04632886 -0.00288126
0.00116262 -0.04051581 -0.00049992
0.00491393 -0.00058346 -0.00030403
-0.00143353 -0.02858190 0.00050007
-0.00210798 -0.00644020 0.00216393
-0.00588705 -0.00310656 0.00216160
0.00675203 -0.01921994 -0.00049992
-0.00547838 -0.07228017 -0.00049992
0.01207785 -0.05522132 -0.00032610
0.00516830 -0.07509608 -0.00008712
0.01085297 -0.05375945 -0.00049992
0.00208880 -0.02501429 -0.00049992
0.00055377 -0.06643387 0.00050007
0.00785337 -0.04311497 0.00050007
0.01016872 -0.03711580 -0.00049992
0.00941899 -0.04898645 0.00050007
0.00354431 0.05863234 0.00237834
-0.00611584 -0.02993452 -0.00099992
-0.00286755 0.06462795 -0.00376783
-0.00224216 0.08379614 0.00350268
-0.00610764 -0.04728630 -0.00099313
-0.00542450 -0.00187022 -0.00253489
-0.00078041 0.01261435 -0.00397679
0.00140246 0.05470159 0.00356608
0.00223609 -0.00469508 0.00321771
-0.00083355 0.02485656 0.00397336
0.00075631 0.02466164 0.00377306
-0.00183392 0.01583452 -0.00394905
0.00195382 0.07953778 -0.00336397
0.00780366 -0.04528218 0.00050007
-0.00645992 0.00031926 -0.00159999
0.00096069 0.06034944 -0.00371514
0.00485950 -0.04513455 0.00050007
0.00358336 -0.02709457 0.00050007
-0.00709663 -0.04834121 -0.00098323
-0.00062795 -0.00394406 -0.00397382
0.00065912 0.08121351 -0.00380148
0.00924469 -0.02882344 0.00050007
-0.00053019 -0.01215961 0.00050007
0.00302742 0.02992916 0.00277569
-0.00559899 -0.03794983 0.00071722
-0.00446715 -0.02748028 -0.00049992
0.00546742 -0.02158006 0.00050007
-0.00745333 -0.05621443 0.00091056
-0.00551909 0.01008748 -0.00245853
0.00405025 0.07579916 -0.00196978
-0.00799406 -0.05055509 -0.00072508
0.00528801 -0.02495341 -0.00049992
-0.00016759 -0.07759570 0.00050007
-0.00295088 0.01097103 -0.00374390
0.00215849 0.07307711 0.00326105
-0.00343729 0.04447198 0.00357220
0.00379594 -0.06899406 0.00050007
-0.00501946 0.05508429 -0.00282149
-0.00298546 0.00856913 0.00373180
0.00062146 -0.01488052 -0.00049992
-0.00529460 0.01468372 -0.00263977
0.00293123 0.01767278 -0.00282929
0.00808121 -0.02689328 0.00050007
-0.00682111 0.03377373 0.00118983
0.00047085 -0.04059462 -0.00049992
-0.00394861 0.02424126 -0.00339141
-0.00638331 0.05902480 -0.00168702
-0.00166641 0.02151793 0.00397312
-0.00553930 -0.07268090 -0.00049992
0.00769909 -0.06909549 0.00050007
0.00330738 -0.03582902 -0.00049992
0.00491392 0.02753316 0.00032003
-0.00021542 -0.02581874 -0.00049992
0.00565836 -0.05910105 -0.00049992
0.01168547 -0.04819972 0.00050007
-0.00587404 0.08309236 0.00217211
-0.00783151 -0.06265479 -0.00080579
0.00436833 0.05765329 0.00161980
0.00533078 -0.03218305 -0.00049992
-0.00563001 0.03104973 -0.00236899
0.00051022 0.07768935 0.00312359
0.00722615 -0.04995734 0.00050007
0.00286094 0.07955115 -0.00286855
0.00013549 -0.05127003 0.00050007
0.00805311 -0.04307463 -0.00049992
-0.00491638 0.08379614 -0.00215758
0.00644165 -0.06712726 0.00050007
-0.00425352 -0.02269250 0.00070931
-0.00043488 -0.06711544 0.00050007
-0.00449886 -0.04421770 -0.00049992
0.00036275 -0.07880667 0.00050007
-0.00344850 0.07016911 -0.00356810
0.00175045 -0.01259435 0.00050007
0.00402681 0.08379614 0.00046992
