# .PCD v0.7 - Point Cloud Data file format
VERSION 0.7
FIELDS x y z
SIZE 4 4 4
TYPE F F F
COUNT 1 1 1
WIDTH 1000
HEIGHT 1
VIEWPOINT 0 0 0 1 0 0 0
POINTS 1000
DATA ascii
0.02621425 0.02017880 -0.02505764
0.00911979 0.03080706 0.01032911
0.02619198 0.02020557 0.02645874
0.02834829 -0.02348573 -0.00133871
0.00487797 0.03242225 0.04165747
-0.00567247 -0.03750008 0.01252662
-0.02158589 -0.03051923 0.01166411
-0.00796551 -0.03704677 0.03829052
0.00723017 -0.03721098 0.00634856
0.03957509 0.00274014 0.01306808
-0.03374437 -0.01226513 0.02271938
-0.03925420 0.00459111 -0.02558353
0.01577590 -0.03421910 -0.01303959
-0.00493914 0.03905973 0.02804015
0.01292352 -0.03549824 -0.01111574
-0.00581936 0.03151153 0.02737307
-0.03952967 0.00305000 -0.01064925
-0.00364697 -0.01935805 -0.03263634
0.03466834 0.00178638 0.00511259
-0.00919607 -0.01330987 -0.03263634
-0.03332666 -0.02508792 0.01139638
0.02964349 -0.02157499 -0.01293897
0.00394109 0.06474173 0.00127917
-0.01635751 0.02794178 -0.00957469
-0.03420168 -0.01019629 -0.01166696
0.02592814 -0.00681575 -0.02763634
-0.01652701 -0.03381675 -0.01125063
-0.00408056 0.03770204 -0.01770727
0.02754637 0.02597789 -0.02787759
-0.00532474 0.03449838 0.04233448
-0.01795290 0.03275609 -0.02199226
0.02894586 -0.02261702 0.00297365
0.00141313 -0.04294241 -0.01046535
-0.02896032 0.02454249 0.02654736
0.02742096 0.00934533 -0.02763634
0.02744893 0.02562481 -0.02940155
0.03169971 0.01184035 0.03612957
-0.01054744 0.03036584 0.01675977
0.02948377 -0.01385288 -0.03263634
0.03329653 0.01069380 -0.03252247
-0.02597042 0.02742470 0.02248657
-0.00175041 0.06571151 -0.00135840
-0.00356972 0.03473471 -0.03170225
0.03995590 -0.00162578 0.01345071
0.03478849 0.00078516 0.01841360
-0.02293643 -0.02939051 -0.00980817
0.00098917 0.04090180 -0.02611861
0.00112863 -0.01743140 -0.02763634
-0.01507306 -0.01115206 -0.03263634
0.00863281 0.03093107 0.00972490
0.00470644 0.05191684 -0.01262812
-0.02770194 -0.03181936 0.00358086
-0.03701784 -0.01619038 0.04154739
-0.00108409 -0.04240442 -0.02992190
-0.03994704 -0.00467944 0.00872846
-0.02125198 0.03089091 0.01085692
-0.00499284 0.06271124 0.00739784
-0.03065014 0.02271055 -0.01937689
0.02771636 -0.03180927 -0.01335031
-0.02945059 -0.02187270 -0.00272572
0.00077340 0.03423021 -0.03209710
-0.01955666 -0.03194358 -0.02537082
0.01579628 -0.03971582 -0.00011448
0.01021018 0.03047534 0.02467040
-0.01071885 0.03030679 0.03816218
0.00215324 0.03192668 -0.00448432
-0.00172119 0.00087650 -0.03263634
0.00498661 0.04277723 -0.02011257
-0.00757966 0.03627403 0.03159088
-0.02993889 -0.02109792 0.01902158
0.00038588 0.05135136 0.03079821
0.02090547 -0.03705039 -0.02021210
-0.02619339 0.00355717 -0.03263634
-0.00629698 -0.04247909 0.02789615
0.03935276 -0.01011485 0.02690090
0.02291767 0.01058086 -0.03263634
-0.01965598 0.02252296 -0.02763634
-0.03927150 -0.01050580 -0.01784629
0.00394123 -0.03323613 -0.03263634
-0.00422827 -0.02032496 -0.03263634
0.02114859 0.02490410 -0.00747165
-0.03994834 -0.00125304 0.01379098
0.03307407 -0.01169823 -0.02693847
0.01582294 -0.03968057 0.03951934
0.03836036 0.00673600 -0.02953852
-0.02166483 0.02291099 -0.02726396
-0.03270395 -0.00940889 -0.02748526
0.01134868 -0.04133149 0.03158801
0.02444655 -0.03460620 0.02892029
-0.01287865 -0.00769337 -0.02763634
-0.01026240 -0.04163240 0.01735673
0.03557794 -0.00626040 0.04163275
-0.02442368 -0.02804247 0.02235994
-0.03390139 -0.02415979 -0.01171024
-0.00382128 0.06325554 -0.00389041
-0.00548691 -0.04259446 -0.00616316
-0.02883706 0.02359446 0.04165903
0.02295901 -0.03573588 0.03070782
-0.03230236 0.02050394 -0.02803581
-0.00194309 0.02789146 -0.02763634
-0.03228054 -0.02659179 0.03041802
-0.01389789 0.02912295 0.00972876
0.03462953 0.00203028 -0.01912092
-0.00991481 0.03056771 -0.02510502
0.02208349 -0.00969108 -0.02763634
0.02484037 -0.03432747 -0.01601379
-0.03466183 0.00183687 0.02172200
-0.02955294 -0.02961378 -0.02891984
0.01794514 0.00506409 -0.03263634
0.02261581 0.00030970 -0.02763634
-0.03428481 0.00397338 -0.01307230
0.02169397 0.02447685 0.01186176
0.03215665 0.01080354 0.01289736
0.02994185 -0.02950634 -0.00733633
0.02567773 0.02767299 0.00585042
0.01593816 -0.02705810 -0.02763634
-0.02285155 -0.02946334 -0.00236340
0.00315445 0.06506119 -0.00066994
0.01730052 0.02744058 0.01492852
0.03296249 0.01967337 -0.02675557
0.01130255 0.02322161 -0.03263634
-0.03638158 -0.01952709 0.03420735
0.02476692 -0.03054224 0.04232802
0.00604765 -0.03743650 0.03356520
-0.03016506 -0.01826043 -0.02724875
0.00979709 -0.04165311 -0.02854276
0.03486748 -0.00589510 -0.00080849
-0.01413246 0.02689476 -0.03263634
0.00375151 0.06152582 0.02362625
0.01359903 0.03462595 0.00571939
-0.02881809 0.00330016 -0.02763634
0.01646297 0.02788045 0.03386895
-0.01463669 -0.04020061 0.03346880
0.00929447 -0.03672556 -0.01744345
0.01332130 -0.03534659 0.00518823
-0.03978684 0.00102563 0.01366848
-0.00996836 0.01262182 -0.02763634
0.03963476 -0.00832842 0.00412755
0.03491753 -0.00481022 -0.00196088
0.03416380 0.00448977 -0.00612263
-0.02637274 0.01999160 -0.01894311
-0.02516331 0.02133232 0.02011887
0.00995171 0.00353327 -0.03263634
-0.02094830 0.03029029 0.04154223
0.01227966 0.02326389 -0.02763634
-0.02258252 -0.02968517 -0.01612560
-0.03434564 0.00373049 -0.00980920
0.02373797 0.02271757 0.00768564
0.02075474 0.02518552 0.01851566
-0.03987846 -0.00594886 -0.01659614
0.03373630 -0.01229955 -0.00791196
-0.00094887 0.00373571 -0.03263634
0.03965511 0.00219781 0.00847394
-0.00874370 -0.01729017 -0.02763634
0.01312961 -0.04075005 0.01113856
0.03912073 -0.01127135 0.00044256
-0.03422468 -0.01000377 0.01163202
0.03685236 0.01253647 -0.02026320
-0.00493817 0.05802546 0.02331558
0.02565408 0.02078683 0.02270188
-0.03510480 0.01616826 0.02001064
0.03121705 0.01278850 0.03495453
-0.02219121 -0.03625414 0.00086279
-0.03677319 -0.01869184 0.02068424
-0.00850418 0.00444761 -0.03263634
-0.01927488 0.03205866 0.02940128
-0.03225953 -0.02662092 0.02077879
0.03175912 0.02129344 0.01939267
0.01197130 0.02989451 0.02789241
0.01926880 0.02981121 -0.03156866
-0.03764574 0.01052329 -0.00697957
0.03901686 0.00578439 0.00959797
0.02909565 -0.03041530 0.03903265
0.00116293 -0.04295717 0.03501839
-0.00482918 0.04514760 0.02811336
-0.00041848 0.05560319 0.01788087
0.03712137 0.01187857 0.02647093
0.00339097 0.05872696 0.00533601
0.01633792 -0.03392077 -0.01262826
-0.02673756 0.01634450 -0.03263634
-0.00648258 -0.03737022 0.00872921
0.03442258 0.00334552 -0.00068462
-0.00827221 -0.01156807 -0.02763634
-0.01163293 -0.02821034 -0.03263634
-0.03147869 -0.02614328 0.04177732
-0.03380588 0.00608081 0.00710022
0.01424863 0.03439103 -0.01886603
0.00365908 0.05095036 0.02224269
-0.00838797 0.03610604 0.01780698
-0.02465503 -0.02782166 0.02160220
-0.03189506 -0.01734520 -0.01436031
0.03491887 -0.00123214 -0.00801666
-0.03750390 -0.01688794 -0.00743745
-0.03553935 -0.02132844 -0.01969420
-0.00025220 0.05446249 0.02990137
-0.00185185 -0.03791293 0.01115216
-0.02060763 0.03129506 -0.02694439
-0.02396586 0.02251080 -0.01348918
-0.03778591 0.01010303 0.01197691
-0.02041967 -0.02615151 -0.02763634
0.01806883 0.02697036 0.03098838
-0.03377386 0.01843403 0.02437868
-0.00054161 -0.03797735 0.02200108
-0.00403290 0.03177808 -0.01666449
0.00899717 -0.03680655 0.01238316
-0.02604879 0.02035541 0.03964888
-0.00292971 0.03187504 0.01016894
0.03449670 -0.00773198 -0.02595317
-0.03479713 0.00070133 0.00223555
-0.00494933 0.06314452 0.01447228
-0.00294784 -0.02297453 -0.02763634
0.01023506 -0.03643660 -0.00881351
0.03498282 -0.02220846 0.04038619
-0.02470520 0.01322908 -0.03263634
0.01705549 0.00503292 -0.02763634
0.03405209 -0.01096186 0.01571913
0.01575109 0.02824185 0.02602859
0.01279180 -0.03555496 -0.01705622
-0.03112901 -0.02808661 -0.01905920
0.03078414 0.02253405 0.00637757
-0.02620514 0.02722900 0.02082463
-0.00314532 0.03185991 0.01246222
0.03565287 -0.02109461 0.02490109
0.01904940 -0.03814356 0.01763847
0.03203598 0.02094984 -0.00689867
0.03625330 0.00671860 -0.03191130
-0.00300774 0.03186470 0.02505290
-0.03975397 0.00139987 -0.00370502
-0.01355032 -0.00775419 -0.03263634
-0.02495705 -0.02751685 -0.00701842
-0.02765000 -0.03185573 -0.02275472
0.02992966 -0.02112251 -0.00260105
0.02494539 -0.03422018 0.01918207
-0.00491353 -0.03762645 -0.00763188
0.00993653 0.03575452 -0.01611975
-0.02014671 0.02125439 -0.02763634
-0.03263180 0.00961534 0.02836028
0.03092935 -0.01932286 0.01254907
-0.03736027 0.01130372 -0.01342429
0.00996044 0.01248282 -0.03263634
0.01750269 0.02166566 -0.03263634
0.03788729 -0.01578010 0.00760474
-0.02073420 -0.03712925 -0.02814225
0.01836722 0.02492675 -0.02744396
-0.01533097 -0.02681836 -0.02763634
0.03671837 0.01284975 0.01620606
-0.00181221 0.06140199 0.02566338
-0.03386339 -0.01181513 0.02662816
-0.02149175 0.02462913 -0.02135073
-0.00673806 0.00532496 -0.02763634
0.00482600 0.04119178 0.02590785
-0.00246594 -0.03786953 -0.02469261
0.01193379 -0.01756238 -0.03263634
-0.00351889 0.03182790 0.03318619
-0.02115033 -0.03691490 0.01614693
0.00360862 0.00078967 -0.02763634
-0.00166954 -0.00029924 -0.03263634
0.00643562 -0.03737398 0.00077818
0.00780800 0.03620429 -0.00914677
-0.02085209 0.02511804 0.02127487
-0.00171799 0.03572686 0.04200582
-0.03488698 -0.00550533 0.02665993
0.03113461 -0.01894806 -0.01126416
0.00182600 -0.03790795 0.01705385
-0.02166961 -0.01787305 -0.02763634
-0.02864500 0.01148634 -0.02763634
0.00099403 -0.03793738 -0.00807552
0.01502929 -0.04002698 0.03524938
0.03053607 -0.00157520 -0.02763634
-0.00119954 0.03640863 -0.02995712
-0.03413445 0.00463551 -0.02047686
0.00463350 0.06093960 0.02215994
0.02793832 0.01809195 0.00541007
0.00140014 0.00564768 -0.03263634
0.03090880 -0.02315891 0.04229394
0.02686534 0.01284358 -0.02763634
0.02752355 0.02601625 0.02042761
0.00066232 -0.04297022 0.00251517
0.00068552 0.05732643 0.00478558
-0.02462738 0.02188028 0.03445722
0.01815260 0.03265511 0.02968971
-0.02230684 -0.03617698 -0.00733998
-0.03162657 -0.02742659 -0.01965089
-0.02231692 0.03020916 0.02206172
-0.02120117 -0.03083090 0.02114560
0.00547802 -0.04245077 -0.02872684
-0.00492488 0.06015499 -0.00501592
0.01787994 0.03275886 -0.01348714
-0.03615234 -0.02007069 0.00056565
-0.03143902 -0.01149907 -0.03263634
0.03717279 -0.01774616 -0.00410850
0.03088455 0.01976949 -0.03130788
-0.03093451 -0.01930868 0.02352162
-0.02152625 0.02460026 -0.00650490
0.00533449 -0.03756991 0.01566308
0.03475856 -0.00703092 0.02019848
-0.00438771 -0.00745900 -0.03263634
-0.03117522 -0.01878215 0.01715060
-0.01690420 -0.03361420 -0.02404327
0.00136374 0.04725449 -0.01248486
-0.01330612 0.03473051 0.03444885
0.00435785 -0.03770472 -0.01008537
-0.00136821 0.01374553 -0.03263634
-0.02361078 0.02760191 0.04208031
-0.03366024 -0.02457538 0.01780286
0.03495734 -0.00394308 0.02898879
-0.00889981 0.01153986 -0.02763634
-0.03179421 -0.02724746 0.02954624
0.02911218 -0.02235509 0.03928231
0.01893620 -0.03820697 0.01268037
0.03913406 -0.00529649 -0.03028245
0.00463123 0.05556239 -0.01393140
0.01597687 0.02813578 0.01395652
-0.01617342 -0.03953559 -0.01603320
-0.02208365 -0.03633293 0.03581742
0.01997364 -0.03171419 0.03334031
0.03193334 -0.02701897 0.03026373
-0.03870986 -0.00179432 -0.03090794
-0.00030426 -0.04298006 0.00863644
0.03523225 0.00778091 0.04227619
-0.03576986 -0.02086062 0.03346033
-0.03129894 -0.02785510 -0.02622534
0.03992412 -0.00111331 0.03112642
0.01572788 -0.03423265 0.00486973
-0.01339113 -0.03532031 -0.00745156
-0.02463386 -0.03446749 -0.00441385
-0.03416260 -0.01050763 0.03123669
-0.03472685 0.00135171 0.01501013
0.03270556 0.02003378 0.01708324
0.01348541 -0.04062489 0.02390560
0.00499099 0.06131178 0.00048820
-0.01971034 0.01623449 -0.02763634
0.02918757 0.01624085 -0.00698312
0.03881068 0.00669427 0.03383158
0.01141248 -0.04128085 0.04016542
0.01429525 -0.00494032 -0.02763634
0.02445583 -0.03462594 -0.00980428
0.03991273 -0.00523211 0.02216815
0.03006468 0.02152605 -0.03083316
-0.03757228 -0.01669040 0.01101377
0.01495801 -0.03460348 0.03048986
0.03326870 0.01920792 -0.02466207
-0.02953821 -0.02174582 -0.00128493
-0.01077922 -0.03624871 0.02708957
0.03181033 0.02124539 -0.00246469
0.00618093 -0.04248034 0.02888836
0.00383784 0.00680618 -0.02763634
-0.01697213 -0.03918518 0.01661021
0.02586367 0.02059380 -0.02122461
-0.01058258 -0.03630928 0.00250945
-0.01447555 -0.01650549 -0.02763634
-0.03389122 0.00572624 0.03695086
-0.03117165 -0.01885123 0.03833664
-0.00266726 0.04730859 -0.02295568
-0.03488500 -0.00029268 0.00106261
0.00794669 -0.04215436 -0.01818074
0.01329693 -0.04069783 0.00471039
-0.00111355 0.05686038 0.01620215
0.00120516 0.03624611 -0.03018745
0.01127730 -0.04134578 0.01016712
-0.02811434 0.01790619 0.04034761
0.03452046 -0.00870815 0.01718242
-0.03905279 0.00555791 0.01222243
0.03905021 -0.01162741 -0.01178833
-0.01817121 -0.03289346 0.02661921
0.03410059 -0.01075019 -0.02269952
-0.02337335 -0.03543390 0.00426528
0.03549104 -0.02142386 0.02623698
0.02691012 -0.02845796 0.04232860
-0.00554770 0.03662901 0.00380055
-0.03439691 0.01738502 0.03841748
0.03153451 -0.02756160 0.01589561
-0.00964057 0.03511553 -0.03010434
-0.03487778 -0.00032328 0.02083991
-0.03477629 0.00086011 0.01601094
-0.02325014 0.00421765 -0.03263634
0.03914395 0.00518919 -0.02300888
-0.02843451 0.02512456 -0.01990330
-0.02785087 0.02565904 -0.00951688
0.01396274 0.03058308 0.04209918
0.02832902 0.02523761 0.01350152
-0.00261676 -0.04284782 0.04032667
-0.02309252 0.02074488 -0.03263634
0.01725353 -0.03905364 0.00277861
-0.03441949 -0.02333403 0.01293844
0.03325887 -0.01377487 -0.01984396
-0.03406091 -0.01101078 0.02307096
0.03002543 -0.02096303 0.00469260
0.02125513 -0.03078779 -0.01589971
0.02849515 0.02506142 0.00527684
0.02496889 0.00099566 -0.03263634
0.03465702 0.00185750 0.01100301
-0.03486327 -0.00575738 0.02982443
0.01746549 -0.03896289 0.02668997
-0.01947549 -0.02690322 -0.03263634
-0.03293083 0.00879437 -0.01784048
0.01245911 0.01168979 -0.03263634
0.00957132 0.03585451 0.00865364
0.00044931 0.04110141 0.02220130
0.00983398 0.03059601 0.00100190
-0.00497427 -0.04267084 0.02777058
0.03837538 -0.01423535 -0.00358060
0.02177890 -0.03037631 0.01916802
-0.02273321 -0.03258063 -0.03204109
0.00260520 -0.01605446 -0.03263634
0.02094119 0.03108747 0.01949809
-0.00315632 -0.03783558 -0.01549950
0.03976438 0.00124415 -0.01096351
-0.00449795 0.03172574 -0.00222342
-0.01418229 0.00943220 -0.03263634
-0.02974261 -0.02142712 -0.00699490
-0.00570779 0.03697596 0.02583518
-0.01210601 -0.03579204 0.01856353
0.00525258 0.00704184 -0.02763634
0.02720477 -0.03230089 -0.00898809
-0.00667595 -0.00111839 -0.02763634
-0.00693633 -0.04235827 0.02016367
0.03478794 -0.00666051 -0.02529277
-0.00253307 0.03190589 -0.00993138
0.02283439 -0.00929943 -0.03263634
0.03684296 -0.01853283 -0.00085781
0.01327598 -0.04070049 0.01276961
0.00330449 -0.04281873 0.03500574
-0.02067237 0.03122451 0.02996675
0.03260245 -0.01570606 0.00227194
0.02789930 0.02565291 -0.01681554
-0.03486472 -0.00003976 -0.00277543
0.00058579 -0.04297641 0.01610906
-0.00497214 0.06071233 0.01844961
0.03047552 0.01420238 0.01220667
0.01347908 -0.02336011 -0.02763634
0.02208712 -0.03010148 -0.01811851
0.01808878 0.01571936 -0.02763634
0.00239968 -0.00528162 -0.02763634
-0.00473760 0.03163050 -0.02550071
-0.00167851 0.00772344 -0.02763634
0.03978455 -0.00706943 0.01584148
-0.01940398 -0.03207372 0.01420732
0.00190261 -0.04237730 -0.02988865
-0.01149234 -0.04127528 0.01834915
-0.03529035 0.01583995 -0.02033706
-0.03314213 -0.01412821 -0.01933640
-0.02071540 0.02521317 0.03479328
-0.02904916 0.01782528 0.04166189
-0.03114375 0.01296951 -0.00884647
-0.00444617 0.03221945 0.04136190
-0.01637958 -0.00336672 -0.03263634
0.02340495 0.02302038 0.00069527
-0.01498597 0.03408770 -0.00874530
-0.01449380 -0.04025914 0.02234184
0.00471909 0.04112917 -0.02263188
0.00794445 0.03108289 -0.00531745
0.00147333 -0.03594602 -0.02757200
0.03701819 -0.01813467 -0.02581070
-0.00683116 -0.03730857 0.02399723
-0.01366902 0.03460107 0.02943294
0.01848279 -0.03408477 0.04199569
0.02469941 -0.03436597 0.04019793
-0.03700071 0.01217842 0.04000080
0.03498593 -0.00329754 0.01276369
0.02230866 0.02397372 0.02339693
0.00103406 0.02820941 -0.02763634
-0.01117043 0.03540007 0.02196248
-0.03243391 -0.01612722 0.02367946
-0.03981760 0.00064847 0.01412162
-0.02887168 -0.02270897 -0.01521032
-0.03133095 0.01934324 -0.03120705
-0.01540744 -0.01374459 -0.03263634
0.03294575 0.00867227 -0.00260209
0.00589533 -0.04253075 0.01554733
-0.02383057 -0.02860468 0.01578166
0.00322006 -0.03782223 0.00307339
0.01281163 0.02958190 0.00448494
0.00294902 0.03689619 0.01326057
-0.02633399 -0.03308336 0.03571180
0.03759056 -0.01665231 0.03604052
0.03555528 0.01534096 -0.02691754
0.00214266 -0.03788768 0.00198164
-0.02372298 -0.03517815 -0.01390554
-0.00411010 0.03177279 0.03375089
0.03773655 0.01023069 -0.02054450
0.02359050 -0.03318623 -0.03134715
0.02531821 -0.03392675 0.01895768
0.01024037 -0.03642714 -0.02192834
0.01310801 0.00959186 -0.02763634
0.00787243 0.03109617 -0.01560669
-0.03372411 -0.01234400 -0.00618858
-0.02627006 -0.01516627 -0.02763634
0.03550320 -0.02139913 -0.01343776
-0.03233611 -0.01637668 0.03602652
0.03490747 -0.00093200 0.02403999
0.02432276 0.02873115 0.03720189
-0.03003423 -0.02890330 0.04104643
0.03989180 -0.00017906 0.01272392
-0.01045962 0.03049487 0.04051687
0.00030174 -0.01070029 -0.02763634
-0.01361332 -0.01928594 -0.03263634
-0.03493255 -0.00149033 -0.02262141
0.00608326 0.03069498 -0.02693432
0.01361050 0.02925586 -0.01879784
-0.03426666 0.00403363 0.03796308
0.01863540 0.03240995 0.03281986
-0.03408067 -0.01078849 -0.01893619
0.00791558 0.00369596 -0.03263634
-0.00923461 0.03592613 0.02008023
0.02792751 0.01810655 0.03190249
0.00833428 0.03611730 0.02877254
-0.00504958 -0.04266048 -0.01479954
0.03323767 -0.01385683 -0.00142214
0.03194324 -0.01725898 0.00677995
-0.03888092 0.00640368 0.03539255
-0.02386769 -0.02857003 0.01268511
0.03219527 0.02070028 0.03485477
0.00421614 0.06024475 -0.00890883
-0.03644003 -0.00004590 0.04218547
-0.01188439 0.02990785 -0.02402197
-0.03312113 -0.01424248 0.03216983
0.02009449 -0.03159756 -0.02473956
-0.03200119 0.02095760 -0.02615997
-0.03780292 -0.01602622 -0.01403512
-0.03923976 0.00459196 0.03346736
-0.01539392 0.02843982 0.01430566
-0.03181022 0.01156901 -0.00667905
-0.03749477 -0.01691270 -0.02269702
-0.00277131 0.03188809 0.00288397
-0.00359684 -0.01067205 -0.02763634
0.00293865 0.06008349 -0.01168161
-0.01398348 0.02908397 0.00679916
0.03061478 0.02262770 -0.02828600
-0.00837369 -0.00261622 -0.03263634
0.00273857 -0.04287832 -0.00681075
0.00488398 0.04447005 0.02793329
-0.03125399 -0.01862153 -0.00188473
-0.00859740 -0.00162166 -0.03263634
0.01084087 0.02002595 -0.02763634
-0.02370473 0.02921834 -0.02458810
-0.03491511 -0.02245256 0.03498388
0.01583657 -0.03616918 -0.03228425
0.00386880 0.05439201 0.02799871
0.02942438 0.01589048 -0.00439889
0.03184738 0.01148260 0.00761121
0.00497011 0.05833876 0.02143648
-0.03312004 0.00754499 -0.02613022
0.03847740 -0.01385058 -0.02669685
-0.00632278 -0.04246507 0.00203016
-0.02277300 0.02622656 -0.03217334
0.01430002 -0.04033784 -0.00667756
-0.00539735 -0.03754589 0.01136980
-0.00574791 0.01650141 -0.02763634
-0.02407027 0.02779018 -0.03047754
0.00433163 0.03677945 0.00963615
0.03231439 0.02054344 0.03341911
-0.03190584 0.01722535 0.04234247
-0.03959113 0.00264849 0.01631322
0.01697495 -0.03919309 0.02008264
-0.00243336 0.03190868 0.04000205
-0.02042693 -0.03737230 -0.02602587
-0.03972210 0.00170695 0.02361925
-0.00560309 0.03155249 -0.00834723
0.02253935 0.02888933 0.04181732
0.02487157 -0.03427308 0.02667889
0.00432390 0.02032754 -0.02763634
0.00318890 0.05732208 0.00047210
0.00027332 -0.03851373 0.04143273
0.01356892 0.02211723 -0.02763634
0.01729116 0.02744089 -0.01863392
0.03463542 -0.00796573 -0.01572987
0.01770357 0.03288183 0.02961707
-0.01344276 -0.00648469 -0.02763634
0.00323859 -0.04282833 0.02530733
0.02918168 -0.01529143 -0.03263634
0.02474421 0.01968480 -0.02739424
-0.03988156 -0.00006149 0.00136370
0.01061428 0.03556592 -0.00046620
-0.00484953 0.06175024 -0.00210125
0.01949823 -0.03577167 -0.03147277
-0.00175228 0.03292357 0.04184243
-0.01428376 -0.03491266 -0.00212510
-0.02437634 -0.03467406 0.00101533
-0.01984583 -0.03770040 -0.01079602
-0.03031216 -0.02907307 -0.00975092
0.01160963 -0.04124686 0.02753113
0.02250623 -0.02975468 -0.01139582
0.01947781 0.03194024 0.01965956
0.01193853 -0.04114043 -0.01683090
-0.03480248 0.00057647 0.01345031
-0.00449549 0.03172604 0.01332979
-0.00613167 0.03654101 -0.00184600
0.00068142 -0.04297372 0.01756107
-0.00852652 0.03094618 -0.01984735
0.02860458 -0.03089518 -0.02169867
0.00771091 -0.04222137 0.01897535
0.03049583 0.01416364 0.00448375
-0.01735196 0.02740727 0.01616509
-0.02444848 -0.03460300 -0.01940405
-0.01346463 -0.02496962 -0.02763634
0.01532542 0.03394066 0.00538846
-0.01457781 0.02919270 0.04113895
0.03864844 -0.01324029 -0.02122266
0.00636004 0.03140696 0.03312119
-0.01655031 -0.03380423 -0.00235454
-0.02368959 -0.02874322 -0.01724773
-0.00531562 -0.03755950 0.02535066
0.01682491 -0.01206435 -0.02763634
0.00274080 0.05223926 -0.01994692
0.01646701 -0.03941328 0.01986379
-0.01255111 -0.03564978 -0.01931356
-0.01797581 0.03261947 -0.02855582
-0.02908264 0.01646144 0.03762741
-0.01136216 -0.04130986 0.02461536
0.02204806 0.01868196 -0.03263634
-0.02177133 0.01831819 -0.03263634
0.02947993 0.01582388 -0.01242649
0.03346505 0.00716388 -0.00215649
-0.02106945 -0.03093084 0.00743664
0.02714471 -0.03141105 -0.03012645
-0.00788035 -0.03705832 0.00526866
0.03951370 0.00311473 -0.00676524
0.03429329 0.00392900 -0.01777283
0.00351118 0.03682701 -0.00191957
-0.02473913 0.00392859 -0.02763634
0.02231516 -0.02993768 0.02786847
-0.00138346 0.06718060 0.00443877
0.01195352 0.02989923 0.00033701
-0.02360031 0.02382173 -0.03257891
0.00421115 0.06332901 0.02012497
-0.03764596 0.01052019 -0.00353800
-0.01373956 -0.01960320 -0.02763634
-0.00501857 -0.01490736 -0.03263634
0.01975356 -0.03183793 -0.01488532
0.00439899 0.03688985 -0.01640876
0.01494482 -0.04007526 -0.02406080
-0.03309852 0.00834815 0.02231071
0.00341967 -0.04282375 0.01234794
-0.02950564 -0.01067867 -0.03263634
-0.02701274 0.00660766 -0.03263634
-0.00957307 0.03585418 0.02172853
-0.01114436 0.00460348 -0.02763634
-0.02518896 0.02425486 -0.03214792
-0.00156835 -0.03792650 0.01226150
0.01639176 0.02791980 0.02763615
-0.03151106 -0.02758899 0.03697056
0.00051529 0.03199602 -0.01822326
0.03637426 0.01362920 0.01872393
0.01215793 -0.00482005 -0.03263634
-0.02998489 -0.02945629 0.03532358
0.00215496 0.06556916 -0.00122577
0.00522036 -0.04263719 0.01702894
0.02575612 0.00619812 -0.02763634
-0.00299697 0.03187944 -0.01547774
0.00440368 0.05159898 -0.01815934
0.00183479 0.06234756 0.02470822
-0.01449008 0.02885263 0.01925978
0.03813610 -0.01501902 -0.00937809
0.03496734 -0.00371740 0.00314916
-0.00077005 0.03700830 -0.00045219
-0.00380113 -0.00529699 -0.03263634
0.00543338 0.03737470 0.02814390
-0.00443679 -0.04272747 0.00579346
-0.03970183 -0.00785205 -0.02476473
-0.00402045 -0.03774888 0.03171796
0.03573576 -0.02092595 0.00758845
-0.02958390 0.02392913 0.02694956
0.01320230 0.03475119 0.02604453
-0.01738695 0.03301254 0.03358366
0.00813243 -0.04212870 0.00107579
0.00668713 -0.01623512 -0.02763634
0.00179675 0.03945392 0.02259539
-0.03517513 0.01605092 -0.01210446
-0.00261535 -0.03785460 0.03352961
-0.03422062 0.01770407 0.00838487
0.03180707 0.01158499 0.02116298
0.01816106 -0.03861489 -0.00792282
0.03975354 0.00137059 -0.01200129
0.02690791 -0.03256942 0.01912695
0.01511944 -0.01376672 -0.03263634
-0.00442795 0.02061101 -0.02763634
0.03715999 0.00115170 0.04235711
-0.01933544 0.02614994 -0.00572785
-0.03668668 0.01290745 -0.02676630
0.02050501 0.01617168 -0.03263634
0.00521835 0.03667434 0.00526481
-0.02195833 -0.03020544 -0.02491125
-0.03463879 -0.00794056 -0.00972304
0.02401740 -0.02843254 -0.00910380
0.02494982 -0.02843899 0.04152992
0.00723494 -0.03719555 0.03642045
0.01966116 -0.00861781 -0.02763634
0.00593823 0.03150074 -0.01673196
-0.03246197 -0.01606262 0.00435068
-0.00968637 0.01162313 -0.02763634
-0.02405241 0.02896080 -0.00132159
0.01289195 -0.03550932 0.02621727
-0.01150809 -0.03599787 -0.01106065
-0.03874539 0.00695124 -0.01057640
0.03495380 -0.00198745 0.01064010
-0.00332792 0.03183843 0.03945110
0.01926267 0.03206008 -0.02605685
0.03997231 -0.00170354 -0.02450941
-0.00029232 0.05375515 0.01933404
0.00263479 0.05015128 -0.02144100
0.00138271 0.03699236 -0.01108944
0.00026637 0.06732076 0.00411287
-0.03704624 0.01210088 0.03703963
-0.03283135 -0.01503153 0.03384561
0.01291086 0.02954591 -0.01524328
-0.01289648 -0.03000390 -0.02763634
-0.00040581 0.05656226 0.02905776
-0.03965828 -0.00042829 -0.02912768
0.02552358 0.02779085 0.02956906
0.03284908 0.00905394 0.03187274
0.01625787 0.02799628 -0.01620622
-0.00680998 0.02205650 -0.02763634
-0.01601837 -0.03409173 0.02676850
0.03747660 0.01099446 0.03738836
-0.00215779 0.04557765 -0.01395247
0.00938864 -0.03669956 -0.01208657
-0.03344873 -0.01322814 -0.01043651
0.01760880 0.02726039 -0.02322652
-0.03977173 0.00122883 0.01009925
-0.03061769 0.01237655 -0.03263634
0.01563591 0.03377533 0.02362686
-0.00543134 -0.03754023 0.02169768
-0.00541642 -0.04261044 0.01199150
0.03995487 -0.00475092 -0.01682163
-0.03780479 0.01005063 0.00862324
-0.01503601 -0.04001923 -0.02766217
0.02145310 -0.03670352 -0.02780455
-0.00518222 -0.04264244 -0.00588979
0.00041485 0.04606269 -0.02435749
-0.00305438 0.03686990 0.00148237
0.03840663 0.00812891 0.01909846
0.03898273 -0.01193121 -0.01797529
0.01321876 0.03474790 0.02196827
0.03996360 -0.00408337 0.01960219
-0.03350892 0.00709381 -0.00317909
-0.00646611 -0.04244359 0.03248279
-0.02200765 -0.00950535 -0.02763634
0.01634845 -0.01403485 -0.03263634
0.00883377 0.03088201 0.02863218
-0.03988741 -0.00563611 -0.02483751
0.02602490 -0.02635925 0.02865343
-0.03454949 -0.00850155 -0.00566421
-0.01872721 0.03236085 -0.00767280
0.01825075 -0.03276277 -0.02567317
0.02040882 -0.01963435 -0.03263634
-0.01131357 -0.03606250 -0.00793732
-0.03314894 -0.01412665 -0.00796157
-0.01401793 -0.04044333 0.02787518
-0.01541399 0.01002640 -0.02763634
-0.02128356 0.02480152 0.01158831
0.03952752 -0.00904046 0.02438455
0.03972565 0.00166992 0.03938751
-0.03986076 -0.00620776 -0.00774210
-0.00894229 0.03085133 -0.00802106
0.00855565 -0.02492635 -0.03263634
0.03478216 0.01675627 0.02389683
-0.00289155 -0.02870167 -0.03263634
-0.01859016 0.03243430 0.03032705
0.01437724 0.02892492 0.03488165
0.00492348 0.03671227 -0.00918743
-0.02518446 0.02131317 0.03178093
0.01895140 0.03223619 0.01339880
-0.03016355 0.01475738 0.00875346
0.01680948 -0.01066174 -0.03263634
-0.03545926 -0.02149345 -0.00757598
-0.03514601 0.01610226 0.01324461
0.02481740 -0.00228077 -0.03263634
-0.03473946 -0.02277731 0.01258867
-0.03986672 -0.00616838 -0.01385944
-0.03438899 -0.00933325 -0.00698342
0.02769171 -0.03183102 0.00418615
0.03268212 0.00989522 0.04071116
0.00496149 0.05200557 -0.01552891
0.00087768 -0.03067107 -0.02763634
0.00147422 0.03196046 0.00063937
-0.00479383 0.05354082 -0.01529858
0.00931014 -0.03671650 0.02829990
0.01260470 -0.04094237 -0.02205480
-0.03485782 -0.00010020 0.02156365
0.01762516 0.01550536 -0.03263634
0.02174000 0.02444038 0.02732080
-0.00709467 0.00416434 -0.02763634
-0.00498127 0.05486148 -0.01139471
-0.01657100 -0.03937234 -0.00097913
-0.02460119 0.02190507 0.00566653
-0.01559617 -0.03981083 0.03865335
0.02514100 -0.03406339 0.02311905
-0.03899743 0.00590245 0.02023827
0.03004016 0.01493335 0.03431682
0.00294605 0.05959686 -0.01239354
-0.03476841 0.00086437 0.03098729
0.00494838 -0.03245700 -0.02763634
0.03191765 -0.02705285 0.01595872
-0.01788677 -0.01424638 -0.02763634
0.02097334 0.02501676 0.04000675
0.02090793 -0.03103878 0.00026815
-0.00556665 -0.03752121 -0.01081582
-0.03815446 -0.01492165 0.00047235
-0.01324605 0.02941227 0.02393531
-0.00078457 -0.02091402 -0.03263634
0.02323001 0.02315309 0.03594215
-0.01183355 -0.03588863 -0.01025501
0.03427608 0.00397256 0.03836923
-0.00629121 0.03651435 0.00459436
0.00244529 0.04624086 -0.01374120
-0.02338339 0.02304917 -0.00786254
-0.01928294 -0.03735744 0.04143474
-0.02053605 0.02485278 -0.02646744
0.00933846 -0.03671342 -0.02033888
-0.02979020 0.02370613 0.03570460
0.03997910 -0.00201944 -0.02239019
0.03404273 0.00501904 0.00596863
-0.02805851 -0.02387782 0.01711161
-0.00343744 -0.04142060 0.04209738
-0.03160028 -0.02746125 -0.01987284
0.01929502 0.02620376 0.01173124
0.03475896 0.01680522 0.03399341
-0.03559235 -0.00752140 0.04176542
-0.00526354 -0.04262326 -0.02338476
-0.00261675 0.06404593 0.02197190
0.03082765 0.02249690 0.02830392
0.00039683 -0.03796500 0.02212004
-0.03482697 0.00212041 0.04086195
-0.03397459 -0.01136368 0.02486518
0.02344377 -0.00461251 -0.02763634
-0.00696232 0.03018825 -0.02718870
0.01547358 0.02592800 -0.02761095
0.02431360 0.02876112 0.00464716
-0.01386755 -0.04049697 0.01207829
-0.02189679 -0.03026144 0.01474284
0.00646937 -0.03737091 -0.00697974
-0.03977299 0.00121664 -0.02581398
-0.00738945 -0.04173221 -0.02990523
0.02781490 -0.02422729 -0.01177079
0.03067064 -0.01979946 0.03648604
-0.03053159 0.01410578 0.00863436
-0.02878508 0.01686749 -0.01687570
0.01746334 -0.01541795 -0.02763634
-0.03700148 -0.01812913 -0.01828655
-0.03888724 -0.00392671 -0.03071266
-0.01308900 0.02555963 -0.02763634
-0.03346203 0.00723905 0.00006434
0.02291616 -0.02941178 -0.01110475
-0.00047648 0.03201135 0.02003410
0.02975416 -0.02153705 0.04051791
0.00321282 0.05759399 -0.01461857
0.01562022 -0.02127713 -0.02763634
-0.03904256 -0.01164101 0.00927825
0.00941187 0.03072400 0.00569060
-0.03252162 0.00993961 0.00660821
-0.02438645 -0.03467936 0.02694862
0.02643362 -0.02589434 -0.00952560
-0.02791896 0.02558109 -0.00297138
0.03139376 -0.02322551 0.04235501
-0.01110353 0.03543670 -0.01214100
-0.02439410 0.02210101 0.02588970
0.00227128 0.05966241 -0.01299439
-0.03618248 -0.02001269 -0.00525082
-0.00494199 0.06048761 -0.00398611
0.01730189 0.02001583 -0.03263634
0.02190926 0.03046208 0.02929321
0.01763760 0.02724099 -0.01953665
0.00155720 0.04746690 -0.01240478
0.03651900 0.01331704 0.02716913
-0.02227787 -0.01470502 -0.02763634
0.03060110 0.00548376 -0.02763634
0.03502300 0.01630598 -0.01268606
-0.03307153 -0.01438898 0.02189388
0.00897438 0.03084571 0.03435383
0.03988954 -0.00570207 -0.00814291
-0.03857468 -0.01350126 0.01925152
-0.01305243 -0.03545695 0.03188841
-0.00241313 -0.03787877 0.00246749
-0.03252185 0.01870809 -0.03046598
-0.03251947 -0.02626052 0.02415647
-0.03471506 0.01655775 -0.02881571
0.03008310 -0.02934095 -0.00571929
0.02238039 -0.02985465 -0.02046440
-0.02196101 -0.03020397 -0.02167815
-0.01742705 -0.03895756 0.03927496
0.02711409 0.01910360 0.01382081
-0.03422331 -0.02366676 0.00865420
0.02403428 -0.02839910 0.03720911
0.02700398 -0.02115175 -0.02762998
-0.03846112 -0.00452079 0.04214843
0.03911108 0.00533990 0.00695025
0.02908430 -0.01212940 -0.02763634
0.01108629 0.02726073 -0.02763634
0.03318665 -0.02530110 0.01960718
0.00161083 -0.00468901 -0.03263634
-0.03397646 0.00533124 0.00114871
-0.03418086 -0.01020835 -0.00190845
0.03852406 0.00772293 -0.01816448
-0.03301324 -0.01453213 -0.00757356
0.03218091 0.00687876 -0.02733447
-0.01693762 0.00538530 -0.03263634
-0.03456194 0.00241339 0.02741075
0.03131872 -0.01857617 0.01867326
0.00589729 -0.02755039 -0.02763634
0.01409307 -0.00349117 -0.03263634
0.00088150 -0.04295645 -0.02187852
0.03103195 -0.01911321 0.03267618
-0.00937795 -0.03843126 0.04222952
0.00808333 -0.04214947 0.02099001
0.01369709 -0.03898278 -0.03115161
-0.03650293 0.01335583 -0.01126058
-0.03961062 -0.00850440 0.02291983
0.03503495 0.01630705 0.03482717
-0.01699989 0.02759692 0.01237374
0.01939548 0.02611098 -0.02283414
0.00272579 0.04099480 0.02299920
-0.03162763 -0.00763144 -0.02763634
0.02152542 0.02460458 -0.01854381
0.03247671 0.01005037 0.00955845
0.00403978 -0.02256056 -0.03263634
0.00631041 -0.04052840 -0.03154986
-0.00028291 0.03200375 -0.02468176
0.02877813 -0.03074710 0.01560203
0.02002079 -0.00049151 -0.03263634
-0.03499368 0.01635938 0.02274606
-0.03389946 -0.02419278 0.01722782
0.03953003 0.00298712 -0.01727532
0.03496972 -0.00366360 0.01226348
0.03126004 -0.00568495 -0.03263634
0.00369437 -0.02599722 -0.03263634
0.01147873 -0.04127126 -0.02175550
-0.01262736 0.03493669 -0.02471327
-0.01730325 0.02743351 0.00190753
0.02283103 0.02351396 0.03039332
0.01245078 0.02972302 -0.01293528
0.01493553 0.02864368 0.03781626
-0.00162377 0.06747105 0.00725906
-0.03003559 -0.02094381 -0.01098393
0.01254301 -0.02445896 -0.02763634
0.00792950 -0.03705967 0.01695531
0.02782983 0.01823857 0.02934952
-0.00506046 -0.03760198 -0.00596707
0.03871677 0.00706222 0.03468449
0.02511612 0.02136816 -0.00623799
0.03456955 -0.00839490 0.01804598
-0.01008487 -0.04166688 -0.02785129
0.00469582 0.04895714 -0.01506222
-0.01003184 0.03295375 0.04235041
0.02401003 -0.03495268 0.02498705
0.03897110 0.00596892 0.03000556
0.03194111 -0.02332368 -0.03171805
0.01474210 0.00936868 -0.02763634
-0.03670793 0.01288397 0.00798310
-0.02997504 -0.02103746 0.02328163
0.00381187 0.04226672 -0.01705392
0.00397929 -0.03777368 0.04034031
0.03906835 -0.01153870 -0.01039084
0.00103218 0.03807217 -0.01571239
-0.02086497 0.03111516 0.02126396
-0.00875641 -0.03685938 -0.00259962
0.02323082 0.00182034 -0.02763634
0.02614097 -0.02622864 0.03770920
0.00631975 0.03268467 0.04201998
-0.02220301 0.02403593 0.02180938
-0.00238838 -0.04290652 0.03878832
0.03911002 0.00539079 -0.02095522
-0.02060512 -0.03723175 0.02934289
-0.00899589 0.03597686 0.01207250
0.03579217 0.00526558 0.04225053
-0.02719683 -0.03231152 0.03529412
0.00220536 0.05640740 0.01767417
0.01541661 0.02802185 -0.03263634
0.01526236 0.01608878 -0.02763634
-0.01642034 -0.03387403 -0.02046922
0.02877016 0.01686782 -0.01674797
0.02177733 -0.03070376 0.04100398
-0.00379191 0.04541390 -0.01551510
0.00374229 0.04823989 -0.01360951
-0.02005685 0.02565896 0.02110625
0.00911007 -0.03677648 -0.00810424
0.01101802 -0.04114573 0.04100534
-0.02517870 -0.03403117 -0.01483548
-0.03539181 0.01565417 -0.01227413
0.01025014 -0.03740101 0.04181460
-0.02281972 -0.03111665 0.04202659
-0.02134155 0.02475484 0.01630820
0.03436033 -0.00956896 0.02984059
0.02623186 -0.03317156 -0.01509315
0.00059657 0.04935166 0.02106307
-0.02442541 -0.02804091 -0.01072003
0.01882131 -0.03321312 0.04152910
0.02149209 -0.03670768 -0.00165073
0.00290418 -0.00953738 -0.02763634
0.01118196 0.02832677 -0.03263634
-0.03306536 0.00844295 0.01245299
0.00398536 -0.04277342 -0.00385182
0.00928310 0.03076195 -0.01408976
-0.03842673 0.00806907 0.03608504
0.03829306 -0.01452017 -0.01753482
0.03688814 0.01243721 0.02467117
-0.03102062 -0.02820171 0.01965246
-0.02453942 -0.03452629 -0.02671914
-0.01240181 0.02972672 0.03880772
0.03606849 -0.01872574 -0.03002231
