# .PCD v0.7 - Point Cloud Data file format
VERSION 0.7
FIELDS x y z
SIZE 4 4 4
TYPE F F F
COUNT 1 1 1
WIDTH 1000
HEIGHT 1
VIEWPOINT 0 0 0 1 0 0 0
POINTS 1000
DATA ascii
-0.01749998 0.00380738 0.00488736
-0.01749998 0.01235177 0.00017813
0.01449996 -0.01599490 -0.01750381
-0.01531026 -0.03279576 -0.00306550
-0.00236268 0.00522332 -0.01904714
-0.01342000 0.02835682 0.00738094
-0.00596307 -0.01564097 -0.02204710
0.00913921 -0.03499996 0.00589714
-0.01749998 0.02615905 0.00870884
-0.00470430 -0.03200000 -0.01517570
-0.01387537 -0.02745088 -0.00798581
0.01449996 0.00334963 0.00926633
0.01749998 0.02191172 0.01642197
-0.01699894 -0.03016161 -0.01314627
-0.01485951 0.01204253 0.02771689
0.01449996 0.00327836 -0.00240322
0.01749998 -0.02319805 -0.01449262
0.00741010 -0.03499996 -0.00985449
-0.00674295 0.03499996 -0.01366094
0.01246666 -0.03457488 0.02356484
0.01749998 -0.00594467 -0.00827634
-0.01749998 -0.01622347 -0.00717633
0.01749998 -0.01717801 0.02346633
-0.01449996 -0.02288937 -0.00822560
0.00837574 -0.02352713 -0.02204710
0.00892286 0.03499996 0.01509829
0.01749998 -0.00954444 0.01948969
0.01314253 0.02002856 -0.02199657
0.01449996 -0.00582373 -0.00452266
-0.00446182 -0.02990191 -0.02204710
0.00785743 0.03499996 0.00567500
0.01749998 -0.00845436 0.02659388
0.01556174 -0.02210554 -0.02098731
-0.00796427 0.03465301 -0.01883907
0.00827959 -0.03187840 0.02088208
0.00421314 0.02902125 -0.01904714
-0.00152109 -0.03200000 -0.01226374
-0.01281767 0.01190925 -0.01904714
-0.01615829 -0.00983668 -0.02043888
-0.00768336 -0.03198015 -0.02162218
-0.00897003 -0.02949127 -0.02204710
0.01449996 0.01827057 0.00702989
0.01749998 0.02713723 0.01681628
-0.01749998 -0.02653487 0.02359919
-0.00082155 -0.03097050 -0.01904714
0.00780259 -0.00896751 -0.01904714
0.00514070 0.03499996 0.01366424
0.00972094 0.03146710 -0.01609323
-0.00753630 -0.03499996 -0.01407502
-0.00106426 -0.03163351 -0.01904714
-0.01449996 -0.01080466 -0.01329122
0.01749998 0.02146019 0.01848994
-0.00504862 0.03200000 -0.00665376
0.00055577 0.00492651 -0.01904714
0.01446511 0.02498355 0.00024091
0.00142117 0.03200000 0.01061061
0.01449996 0.02032335 0.02291020
0.01749998 0.02212446 -0.01047435
-0.01363186 0.02799317 0.01708872
-0.01749998 0.02503768 -0.01039271
0.01190677 0.02683603 -0.02204710
0.01431489 -0.02678799 0.02751098
-0.00970848 0.02913334 -0.02204710
-0.01739926 -0.01608133 -0.01799232
0.01749998 0.00865730 -0.00229406
0.00170570 -0.03499996 0.01959803
0.01449996 0.01721254 0.01722630
0.00888115 0.02269933 -0.01904714
0.01749998 0.01734470 0.01647164
-0.00530064 -0.03200000 0.01365745
0.00173501 -0.03200000 -0.01465843
0.00284800 0.00331432 -0.02204710
0.01449996 0.01688794 0.00165309
-0.00073787 0.03200000 0.00328828
0.01227065 0.03464743 0.01737535
-0.00087585 0.02206897 -0.02204710
-0.01642655 0.03135067 -0.01156320
0.00195126 0.00960170 -0.01904714
0.01449996 0.02229873 -0.01066795
0.01749998 -0.02440284 -0.00542885
-0.00530288 -0.02644464 -0.02204710
0.01749998 -0.01574256 0.01134371
0.01449996 0.00391007 -0.01117529
0.00856504 -0.00481561 -0.02204710
-0.00264562 -0.03499996 0.01292911
0.00743205 -0.03499996 0.02653520
-0.01741908 0.02859741 -0.01312924
0.01065453 0.03495314 0.01292931
-0.00866677 0.03178937 -0.01827501
0.01749998 -0.01990114 0.00677915
0.01449996 0.01910353 0.02664396
0.01749998 -0.00994542 0.00848568
-0.01125623 0.02922162 -0.01904714
-0.00321574 0.00236695 -0.01904714
0.00753128 -0.03499996 0.01263923
0.01448541 -0.02468489 0.00701319
-0.01678863 0.03068511 0.00639784
-0.01499899 -0.01184062 0.02781504
0.01448420 0.02472020 0.01015038
0.01654783 -0.03113944 0.00658426
0.01172668 0.01119072 -0.01904714
0.01695114 -0.03028439 0.02395106
0.01250383 -0.01576324 -0.01904714
0.01449996 0.00190418 -0.00708077
-0.01175906 0.03477580 -0.01506423
-0.01722909 -0.02878236 -0.01817589
0.01695147 0.03028354 -0.00601217
-0.00638530 -0.03499996 -0.00547655
-0.01449996 0.00595163 -0.00515118
0.00057365 0.03499996 0.00262989
0.01449996 -0.00300370 0.00204503
0.00271163 0.02197054 -0.01904714
-0.01316593 -0.03429790 0.02600601
0.01202477 -0.03006260 0.01818156
-0.00849794 -0.03499996 0.02271278
-0.00860174 -0.02723521 -0.01904714
-0.00469470 0.03200000 -0.01490943
0.01139175 -0.01565851 -0.01904714
-0.01749998 -0.02388513 0.01102385
0.01450669 -0.00688751 0.02703813
-0.01749998 0.01415773 -0.01473385
0.00511349 -0.01714765 -0.01904714
0.00181705 -0.03499996 -0.01106419
-0.01363798 -0.00136820 -0.02190016
0.01749998 0.01129713 0.02139486
-0.01749998 -0.02445429 -0.00867893
0.01749998 0.00336883 0.00018330
-0.01354812 0.03410030 0.00631054
-0.01449996 -0.00803880 0.00901690
-0.01060307 0.01787831 -0.01904714
0.01749998 0.00145456 0.02011515
0.01384112 -0.02755182 0.00957241
0.00499084 -0.00631120 -0.02204710
0.00283443 0.03200000 0.02582096
-0.00093493 -0.03200000 -0.01520124
0.00384210 0.03499996 0.02182238
0.01449996 0.02257062 -0.01764956
0.00402470 -0.01051876 -0.02204710
-0.01749998 -0.02233084 0.00807505
0.01378669 -0.03396330 0.01658568
0.01718985 0.02943645 -0.01761910
-0.01322414 0.02867942 0.02548986
-0.00248800 -0.03499996 0.02615519
0.01749998 -0.01425564 -0.01258632
-0.00162003 -0.00674960 -0.02204710
0.01749998 -0.02478194 -0.00151041
0.01239367 0.02970618 0.01721272
0.00476738 -0.03200000 -0.00413309
-0.01749998 -0.01551487 0.00885197
-0.00793063 0.03210092 -0.02157215
0.00717208 0.03499996 0.01147131
-0.01449996 0.01832570 -0.01321799
-0.01195173 -0.03473244 0.02240912
-0.01423562 0.02643551 0.01799132
0.00517031 -0.03410750 0.02794436
0.01449996 0.00582204 -0.00886106
0.01449996 -0.01579892 0.00850222
0.01396642 0.03093664 -0.02120905
0.01749998 -0.01596129 0.02571174
0.01417681 0.02666018 0.00086062
0.01749998 -0.00174335 -0.00187139
-0.00775282 0.03499996 0.01545463
0.01449996 -0.01027073 0.00330307
0.01044437 -0.03183937 0.02787161
0.01444860 0.02517060 -0.01050794
-0.00736011 -0.02825684 -0.01904714
0.01449996 -0.00506073 0.00362755
-0.01749998 0.02719773 0.00256580
0.01227148 -0.02983289 0.00374012
-0.00719575 -0.03439218 -0.01941960
-0.01539128 0.03270875 0.00404974
-0.00412799 0.03200000 0.01840373
0.01749998 -0.01165267 0.01609853
0.01749998 0.00158722 -0.00201891
0.00607871 0.03200000 0.01185204
-0.01749998 -0.00349596 0.01139070
-0.01749998 0.02696051 0.00223338
-0.01749998 -0.02729396 0.02281280
-0.00909730 0.02010474 -0.02204710
-0.00907413 0.01944919 -0.02204710
-0.01573053 0.03231257 -0.01720742
0.00568005 -0.02112483 -0.01904714
-0.00770444 0.03499996 0.00367583
0.01449996 0.02234055 0.00923172
0.01559431 -0.02595982 0.02795284
0.01449996 0.01492146 0.02637676
0.00743728 -0.00246594 -0.02204710
-0.00933922 -0.01721754 -0.01904714
-0.01100993 0.03081443 -0.01413476
-0.01749998 0.00362506 0.02427618
0.01449996 -0.01491652 0.01087614
-0.01449996 -0.01256494 0.01340445
0.01449996 0.01033214 0.01477352
-0.01156376 -0.03044420 -0.00022883
0.01749998 0.00162197 -0.00595785
-0.01449996 -0.00300069 -0.00986357
-0.01461142 -0.03340632 -0.01111657
0.01749998 -0.00664067 0.02641523
-0.00854801 -0.01839587 -0.01904714
0.01244568 0.02964626 -0.00639114
0.01449996 -0.00737445 0.01249875
-0.00764309 0.03499996 -0.01038356
0.01188742 0.03018299 0.01835062
0.00066441 -0.03200000 -0.00974102
-0.01749998 0.00205568 -0.00497919
-0.00121191 -0.03200000 -0.01171883
-0.01749998 0.01457763 0.01812268
0.01749998 0.01486959 0.01638454
-0.00495569 -0.03499996 -0.00939060
-0.00841002 0.00654441 -0.02204710
0.01749998 -0.00496399 -0.00923353
0.01449996 -0.00126256 -0.01732894
-0.01749998 -0.01864120 0.00743901
-0.00635957 -0.01701453 -0.02204710
0.01749998 -0.02314109 0.00515693
-0.01029453 -0.03497889 -0.00869985
0.01749998 0.02478029 0.01503488
0.01749998 -0.00963524 -0.01282686
0.01749998 -0.01339420 -0.00027345
0.01598026 -0.03201839 -0.00870683
0.01166924 0.03276893 -0.02101081
0.01749998 0.01796219 -0.00871236
-0.01610929 -0.03142016 -0.01857568
0.01749998 -0.01377787 -0.00050053
-0.01306839 -0.03434058 0.01541745
-0.01276648 0.03445813 -0.01515204
-0.00228323 0.02003828 -0.01904714
0.01749998 0.02126470 0.00793420
0.00628440 -0.00476043 -0.01904714
0.01449996 0.02355750 -0.00981657
-0.01749998 0.01758034 -0.00941732
0.01152420 0.00130726 -0.01904714
-0.00966233 -0.03149034 -0.01847640
-0.01300024 -0.00496289 -0.01904714
0.01449996 -0.02424593 -0.01464234
0.01719660 -0.02961105 -0.01591324
0.01256630 -0.02952075 0.02212738
0.01749998 0.00852928 -0.00713219
-0.01069758 -0.00720901 -0.01904714
-0.01449996 0.00488480 0.02582296
-0.01396546 -0.03210054 0.02795284
0.01449996 0.01168601 -0.00753469
0.01545578 0.02550885 -0.02107777
0.00288868 -0.03499996 0.01900409
-0.01749998 0.00140826 -0.00521750
-0.01749998 0.01059797 0.01759142
0.01449996 -0.02200788 0.01300306
-0.01449996 0.01772900 0.01944738
0.01449996 0.00587439 0.02349219
0.01449996 -0.00717868 0.02659463
0.00977567 0.03499996 0.00340094
-0.01287945 0.02914527 0.02101155
0.00333005 0.03499996 0.02082079
0.01434374 0.02595657 -0.00438706
0.01469422 0.01413116 -0.02153349
0.01669422 0.03088060 -0.00966243
0.01449996 -0.01897700 0.02172988
-0.01449996 -0.00723201 0.02305665
-0.01749998 0.02426428 0.00991983
-0.01449996 0.00011600 0.00282195
-0.01749998 -0.01825199 -0.01622021
0.00973951 -0.02183545 -0.02204710
0.00962592 -0.03151182 -0.00367849
-0.01258018 0.03453067 0.02111082
-0.00763071 -0.03499996 -0.00509927
-0.01749998 0.01239775 0.01014233
0.01694847 -0.00659861 -0.01932777
0.01749998 -0.02737175 0.01199043
-0.01449996 0.01530190 0.00830820
-0.00810026 0.03499996 0.01627432
-0.01728856 0.02503846 -0.01845340
-0.01749998 0.00370626 0.00921941
0.00882933 0.03175913 0.01885979
0.00359629 0.02614087 -0.01904714
0.01479180 -0.01212037 0.02765872
-0.01179500 -0.02244656 -0.01904714
0.01449996 0.01909902 0.00454263
0.01031853 -0.03497717 0.01875804
-0.00392155 -0.01534144 -0.01904714
-0.00559381 0.01711697 -0.02204710
0.00657130 0.00627410 -0.01904714
0.01749998 0.00438746 0.00007773
0.00288086 -0.03499996 -0.00687267
-0.01471602 0.02654631 -0.02152445
-0.01149705 0.03049717 0.01905591
-0.00272348 -0.02068920 -0.02204710
0.01449996 0.01034908 0.02496953
0.01449996 0.00845948 -0.01530041
-0.01449996 0.00013974 0.02161707
-0.01565422 -0.02621846 -0.02090833
-0.01088574 0.01517569 -0.01904714
0.01449996 0.01813373 -0.00654237
-0.01749998 -0.02401819 0.00321022
-0.00397885 0.03499996 0.00009603
0.00139246 0.03499996 0.02008190
-0.00563356 -0.03499996 -0.00717725
0.01749998 0.02386683 -0.00724469
0.01236617 -0.02973162 -0.01646396
-0.01749998 -0.00867146 0.01853048
0.01749998 0.02148431 -0.00892937
-0.01449996 0.01084667 -0.01242394
0.00361430 0.03499996 0.02555910
0.00204288 -0.03499996 0.01997288
-0.01702396 0.02524747 0.02780094
0.01404321 0.02704798 0.01059414
-0.01449996 0.00285292 -0.01501254
0.01749998 -0.02582685 -0.00411982
0.01449996 0.01965789 -0.01692580
0.00433877 -0.03035631 -0.02201908
0.01258646 0.02949821 0.01551040
-0.01749998 0.02188231 0.02503480
0.01278503 -0.02926416 0.02136610
0.00399025 -0.03200000 0.01212896
-0.01749998 -0.02508511 -0.00731680
-0.01449996 0.00149023 -0.01582980
-0.01677620 -0.02534457 0.02791177
-0.01449996 0.01040708 -0.00857721
-0.01711739 -0.02985733 -0.01405193
0.01449996 0.00622898 0.00100733
-0.01406965 -0.02698008 0.02510246
0.01738150 0.02532365 -0.01806631
-0.01749998 0.00964549 -0.00505191
-0.00925558 -0.03164778 -0.00936312
-0.01215648 -0.02993996 0.01913750
0.01588698 -0.03213584 0.00437896
-0.01449996 -0.00342812 0.02215460
0.01208891 0.03000288 0.01287765
0.01449996 -0.02166508 0.01982836
-0.01442328 -0.02549290 -0.01022723
0.01449996 0.02276614 -0.00266320
-0.01449996 -0.00602938 0.02110664
-0.00773744 0.01836094 -0.01904714
0.00756734 0.02022290 -0.02204710
-0.01749998 0.00104206 0.00801154
-0.00832455 0.02951770 -0.02204710
0.01747024 0.02791565 -0.00667897
-0.01749998 0.01186793 -0.01008225
-0.01449996 -0.02293658 -0.01478784
0.00238944 -0.03060351 -0.02199964
0.01449996 0.01917951 0.02012023
-0.01449996 0.02443045 0.02393267
-0.01080455 -0.03494241 -0.01464593
-0.00115609 -0.01213683 -0.02204710
-0.01449996 0.01101871 -0.00801833
-0.01336476 0.03420192 0.00429887
-0.01121895 -0.01988624 -0.01904714
0.00591661 -0.03200000 0.02357808
-0.00949686 0.03156256 -0.00996711
-0.01749998 -0.01031185 0.01635244
0.00243502 0.03499996 0.00166060
0.00596354 0.00913136 -0.01904714
-0.00086307 0.01563572 -0.02204710
0.01730444 0.02913185 0.01977019
-0.01749998 0.00909373 0.00797412
0.01572125 0.02466847 0.02795284
-0.00334832 0.03142380 -0.01904714
0.01749998 -0.00361280 0.01223294
0.01366258 -0.02793967 0.02447559
0.01449996 -0.01022765 0.01641228
-0.01065678 0.01918841 -0.01904714
-0.00629007 -0.03200000 -0.01124948
0.00896934 0.03171650 0.00014163
-0.01449073 0.02461723 -0.01565904
0.00185262 0.03499996 0.00021921
0.01449996 0.01745638 0.01611013
0.01698858 -0.02889828 -0.01886010
0.00950984 -0.02271680 -0.02204710
-0.00084277 -0.01830866 -0.01904714
0.01027883 -0.03010654 -0.01904714
0.01749998 -0.02314103 0.02663366
0.01449996 0.01791004 0.01789459
0.01431524 -0.02607167 0.01821452
0.01449996 -0.00229157 0.01589896
0.00192468 0.02536491 -0.02204710
0.01119751 -0.03490217 0.01744528
-0.01449996 0.00960315 -0.00131685
0.01749998 0.02220107 0.01456402
-0.00186817 0.01446533 -0.02204710
0.00443503 0.00385857 -0.01904714
-0.01749998 -0.01526199 0.01974178
-0.01449996 0.01182041 0.02244581
0.01449996 0.00438887 0.00462428
-0.01749998 -0.00956868 0.02456500
-0.01273555 -0.01521722 -0.01904714
0.01229517 -0.03463985 0.02422755
-0.01749998 -0.01596461 0.00607277
-0.01749998 0.02005561 0.02524235
0.01730508 0.02912902 -0.00124403
-0.01749998 -0.00517213 0.00448103
0.01449996 0.00615616 0.00704474
-0.01449996 0.00286756 -0.00933378
0.00510134 -0.00340531 -0.01904714
-0.01749998 0.02299032 0.02552665
0.01316889 0.01381377 -0.02199450
-0.01327761 -0.02859806 0.01736139
0.00993814 -0.03412634 -0.01985337
0.01749998 0.01787968 -0.01516045
-0.01749998 -0.00057731 0.02008710
-0.00172599 -0.02763219 -0.01904714
-0.01449996 -0.01314275 -0.01074209
0.00347366 -0.03200000 0.01262450
-0.01449996 0.01849527 -0.00258936
0.00267332 -0.00683920 -0.01904714
-0.01449996 0.02005995 -0.01328992
-0.01749998 0.00309679 0.00170059
0.01567307 0.00707671 -0.02089221
0.01749998 -0.00348631 0.00374498
0.01279554 -0.00352825 -0.02202386
0.01449996 -0.00740951 0.02620795
0.01749998 -0.01005865 -0.00877016
0.01449996 -0.00158521 -0.00666099
0.01106071 -0.03079045 -0.00106911
0.01449996 -0.00720996 0.00162270
0.01449996 0.01104202 -0.01667232
-0.01749998 0.00358683 -0.00203937
0.01625097 0.02850517 0.02795284
0.00066643 0.03499996 0.01550664
-0.01449996 0.01925751 -0.01103292
-0.01749040 0.02763386 0.01163953
-0.01749998 0.00915875 -0.00935771
0.01449996 0.01175058 -0.01615737
-0.01449996 -0.02259872 -0.00000567
-0.01449996 -0.02259071 0.01167609
0.01445538 0.02509095 -0.00742026
0.01503080 0.02009918 -0.02134226
-0.01077790 -0.03096836 0.00830841
0.01449996 0.01721292 0.02449457
-0.00523523 -0.03200000 -0.00771612
-0.01749998 0.00481833 0.02296328
-0.00337121 -0.03200000 -0.01758710
0.01749998 -0.02670990 0.02052420
-0.00286601 0.02019477 -0.01904714
-0.00601921 0.03499996 -0.01378094
0.00309989 -0.02747601 -0.02204710
-0.00123361 -0.03499996 -0.00002097
-0.01449996 0.02429960 -0.00946358
-0.01371071 -0.02784655 0.00505896
0.00846093 0.03499996 -0.01225859
0.01749998 -0.01026336 -0.00399226
-0.01747454 -0.02785550 -0.01249438
-0.00837020 -0.00488288 -0.02204710
0.01749998 -0.01280969 0.01655165
0.01449996 -0.00252937 -0.01401573
-0.01449996 0.00078417 0.00005394
0.00477946 -0.00750371 -0.02204710
-0.00651949 0.03200000 0.01272129
-0.01749998 0.01106858 -0.00658843
-0.01749998 -0.01016947 0.00469250
-0.00614775 -0.03200000 0.01914516
-0.00941571 -0.02067152 -0.01904714
-0.01749998 0.02204121 0.01122695
0.01449996 0.01571432 0.00281189
0.01476411 0.03328505 -0.01048106
-0.01748704 -0.02303835 -0.01721144
-0.01749998 0.00791132 -0.00481558
-0.00188657 0.03423161 -0.01968161
-0.01449996 -0.00507183 0.01301013
0.00946132 -0.03444489 0.02784760
-0.01749998 0.01620470 0.00229998
-0.00027502 -0.01314857 -0.01904714
0.01749998 0.02003916 0.00546816
-0.00752398 -0.03499996 0.00495916
-0.01262054 0.00879616 -0.01904714
0.01118174 -0.03072256 0.02168053
-0.01449996 0.01013096 0.00386394
0.01449996 -0.01829308 -0.00130721
0.01232710 0.03462922 -0.00496692
-0.01749998 -0.02100044 0.00834397
0.00482217 -0.02315310 -0.01904714
0.00079948 -0.03499996 -0.00499466
0.01449996 0.01877299 0.00579551
0.00397465 0.02913033 -0.02204710
-0.01449105 -0.02462454 -0.00259266
0.00192334 -0.03499996 0.02234727
-0.01436728 0.02585206 -0.00961829
0.01718293 0.02965575 -0.01147208
0.01230194 -0.02980452 -0.01211435
-0.00550526 -0.03499996 -0.00208357
-0.00529783 0.03200000 0.01612658
0.01449996 -0.02332039 -0.00870816
-0.01749998 0.00004739 -0.00141380
-0.00675197 0.03200000 0.01743687
-0.01449996 0.00702133 0.00068196
-0.01194851 0.03436631 0.02771572
0.01749998 0.00387639 -0.00128689
0.01438005 -0.02576792 0.02642729
0.01749998 0.00021051 -0.00589158
0.01749998 0.01137551 -0.01065721
0.00517251 -0.03200000 -0.01006068
-0.01247135 0.03457305 -0.00826206
0.01161303 -0.02977397 -0.02202396
-0.01743216 -0.02844793 -0.01203546
0.01451936 -0.03347943 0.01109532
-0.01749998 0.02271675 0.01539523
0.00612351 -0.00293490 -0.02204710
-0.01449996 0.00412365 0.01264348
0.01749998 -0.00704599 -0.01516032
-0.01749998 0.00632621 -0.00930707
0.01749998 0.00342646 -0.01309932
-0.01449996 0.00614556 -0.00042842
0.00527658 0.00194910 -0.02204710
-0.00213152 -0.01675429 -0.01904714
-0.01449996 -0.00335639 0.02380752
-0.00350158 0.02011916 -0.02204710
-0.00414105 0.02794995 -0.01904714
0.01749998 0.00101643 0.01680432
0.01749998 -0.01606212 -0.01458069
-0.01749998 0.00484577 -0.00100616
-0.01749998 0.00693324 0.01976277
-0.00197661 -0.00094245 -0.02204710
-0.01749998 0.00097115 -0.01328448
0.01449996 -0.01711697 0.02217988
-0.01449996 -0.01047981 -0.01110274
-0.01444792 0.02520368 0.01764688
-0.01749998 0.00839136 0.00475918
-0.00091373 -0.03499996 0.01281465
0.01638257 0.02071439 -0.02017628
-0.01256021 0.02951371 -0.00436678
0.01195312 -0.03473213 0.00922599
0.00232982 0.03495548 -0.01761215
-0.00884757 -0.03499996 0.02248521
-0.01687325 -0.03048447 0.01554239
-0.00162715 0.00507921 -0.01904714
0.01318064 -0.02874304 0.02326923
-0.01529553 -0.02724804 -0.02118008
0.01449996 0.01199111 0.00754707
0.01449996 0.01704640 -0.01549837
0.01749998 -0.00305923 -0.01440286
-0.00896992 0.03499996 -0.00222161
-0.01383435 -0.01837642 -0.02185301
-0.01449996 -0.01436709 0.01940815
-0.01327203 -0.02860312 0.01282255
-0.00376393 0.03200000 0.00605250
-0.01272251 -0.03447525 -0.00318776
0.00854427 0.03149522 -0.02181438
0.00536886 0.03499996 -0.00411550
0.00583784 0.03499996 0.02687037
0.01665429 0.03095401 -0.01535913
-0.00908599 -0.03499996 0.01053367
0.01449996 -0.01932995 -0.00974018
0.01749998 0.02612039 0.01161133
0.01449996 0.01201900 0.00469532
-0.01028454 -0.02681853 -0.02204710
-0.01449996 0.01527183 0.01421667
0.01749998 0.01802863 0.01177498
-0.01454440 0.00078014 0.02724311
0.01120447 -0.03490060 0.01642586
0.01722041 -0.02950525 0.00283887
0.00718075 0.03198577 0.00659697
-0.01749998 -0.01086771 -0.01374163
0.01382509 0.02749334 -0.01904714
0.00835114 -0.02464396 -0.01904714
0.01498149 -0.00012042 -0.02137247
0.01395833 -0.02726596 0.02131553
-0.01659761 0.01305277 0.02794514
-0.00629126 -0.00184014 -0.01904714
0.00264083 0.03200000 0.00667218
0.00568948 -0.03499996 0.01235096
0.01449996 0.00990911 0.01193517
0.01449996 0.01945408 0.02338503
-0.01449996 -0.01053700 -0.00914520
-0.01594001 0.03206907 0.00023925
0.00606578 0.01119078 -0.02204710
-0.00541409 0.02745040 -0.02204710
-0.01436120 -0.03359983 0.02038775
0.01449996 -0.00142172 -0.00379767
-0.01746810 0.02794565 0.01837225
0.01449996 0.02357673 0.01697537
-0.01448557 0.03350627 0.02119547
0.00909710 -0.03499996 -0.01213747
-0.01749998 0.01395815 -0.00073572
0.01372252 -0.02782804 0.02702517
-0.00591583 -0.03200000 -0.00941492
-0.01439933 -0.02569788 0.00005892
-0.00563063 -0.03499996 0.01943397
0.01572616 -0.00213124 0.02795284
-0.01301764 -0.03436034 0.00537442
0.01749998 -0.02483050 -0.00192834
-0.00205420 -0.02348686 -0.01904714
0.01449996 0.01783955 -0.00296024
0.00720297 0.03499996 0.02478823
-0.01709796 0.02990725 0.00724463
-0.01005442 0.03304392 0.02795284
-0.01709947 0.00409707 -0.01896831
-0.01449996 -0.00510583 0.01868196
0.01743664 -0.02838539 -0.00973059
-0.01749998 0.00762599 -0.01667616
-0.00247104 -0.03499996 0.02440534
-0.01749998 0.01963506 0.02151733
-0.01600849 0.01569774 0.02795284
0.01449996 0.01807589 0.02395212
-0.00763798 -0.01983074 -0.01904714
0.01749998 -0.02024859 0.02410565
0.01749998 -0.02624655 0.01249776
-0.01445617 0.02505645 -0.00012563
0.00148846 0.03499996 0.00695123
0.01749998 0.02218675 0.00442369
0.01744364 -0.00793468 -0.01776289
0.00258404 0.01367712 -0.02204710
0.01749998 -0.02214295 0.00442925
-0.01449996 -0.01671911 -0.00656998
-0.00547064 0.03499996 -0.01374225
0.01449996 -0.00685701 0.01099024
-0.01749998 -0.00624018 0.02085244
0.01449996 0.00667215 0.01331990
0.01731750 0.02907382 0.02115018
0.01449996 0.01939678 0.00766911
-0.01449996 -0.00333095 0.01964708
0.00028833 0.03200000 0.02505739
0.00086085 -0.02651834 -0.01904714
0.00451238 0.03200000 0.01207729
0.01735661 0.02890004 0.00041381
0.00417613 0.00222013 -0.01904714
-0.01449996 0.01220489 0.00323207
0.01718198 -0.02965883 0.01649512
-0.01749998 0.00382472 0.02088271
-0.01449996 0.01075363 -0.00790240
0.01749998 0.00568591 -0.01154794
0.01396826 -0.03385904 0.02351567
-0.00700658 0.03499996 0.02578682
-0.00055734 0.03499996 0.01715495
-0.00439295 0.03200000 -0.00343731
-0.01749998 -0.00104900 -0.01242344
0.01365572 -0.03403851 0.00526689
-0.00017046 0.03499996 -0.01338510
-0.01749998 -0.01813952 -0.00215777
0.00329834 0.00963979 -0.01904714
0.01449996 0.01874762 0.00047091
-0.01749998 0.01437227 0.01950352
-0.01260734 -0.03443060 0.02732775
-0.01749998 0.01661746 0.02087477
-0.01449996 -0.01569525 0.00238909
-0.01749998 -0.01750066 0.01072535
-0.00242900 0.03200000 0.02156857
0.00573816 0.03200000 0.01006355
-0.01749998 0.00853959 0.01346270
-0.00480496 -0.00903334 -0.02204710
0.00200607 -0.03499996 -0.01510771
-0.01421165 -0.02653834 0.01907659
-0.00421029 0.03200000 0.01970702
0.00417757 0.00832938 -0.02204710
0.01749998 0.01989119 0.00958860
0.00358014 0.01976829 -0.02204710
-0.01449996 -0.02048076 -0.01787906
-0.00505587 0.00488589 -0.02204710
-0.01197367 -0.03009860 0.00200820
-0.01150232 -0.03483358 0.01684833
-0.01449996 -0.00958696 0.00520084
-0.00301096 -0.03499996 0.00028603
-0.00981521 -0.03499996 0.01421474
-0.01749998 -0.01686886 0.01737406
-0.01749998 0.00533863 0.00237052
-0.01749998 0.01744783 0.00649658
-0.01749998 0.01111585 0.01887059
0.00608428 0.03474570 -0.01861529
0.01749998 0.01990724 -0.01593786
0.00020962 -0.03200000 0.01604387
0.01716594 0.02971067 0.00411949
0.01418100 0.03023677 0.02795284
0.01449996 0.00594302 -0.00852159
0.00843732 -0.03499996 0.00099048
-0.01197809 0.03008324 -0.01565939
0.00327215 -0.01346224 -0.01904714
-0.01749998 -0.00818094 -0.00645196
-0.01449996 0.00917379 0.01709718
-0.00975133 -0.02695310 -0.01904714
-0.01449996 0.01470522 -0.01451837
-0.01449996 0.01159022 0.00250298
-0.01664215 0.02285091 0.02794163
-0.01737106 0.00307527 -0.01810977
0.01749998 -0.00235529 -0.00205766
-0.01449996 0.02128910 0.00901996
-0.01449996 0.01559827 0.00950503
-0.00168131 0.03200000 -0.01874318
0.00484583 -0.00040139 -0.02204710
-0.01749998 -0.02547019 0.00825659
-0.01749998 0.01174309 0.02635947
-0.01749998 -0.01395135 -0.00578448
-0.00234765 0.03228493 0.02765061
0.01749998 0.02164687 0.00814777
0.01748345 -0.02773097 0.02200330
-0.00818966 -0.03189840 0.01799258
-0.00999703 0.01799665 -0.02204710
0.00551540 0.03200000 -0.01299613
-0.01749998 -0.01855135 0.02200164
0.00230215 -0.01867608 -0.01904714
-0.01749998 -0.02602615 -0.00567273
0.01749998 0.02396124 0.01748247
0.01703024 0.00215477 -0.01913545
-0.01749998 0.01190706 0.01995771
-0.00180386 -0.03499996 -0.00291353
0.00339767 -0.01807722 -0.01904714
-0.00292813 0.01588814 -0.02204710
-0.01279081 -0.01353259 -0.01904714
0.00817097 -0.03190666 -0.00954952
0.01086353 0.03457196 -0.01888562
-0.00396631 0.01598043 -0.01904714
0.01494386 -0.03313786 0.00975963
-0.01749998 -0.00130627 0.01755888
-0.01449996 -0.01010843 -0.00883824
0.01749998 0.02327706 0.00391920
0.00175214 0.03499996 0.00212174
0.01274312 0.03446723 0.01464934
0.01749998 0.00949639 -0.01228771
0.01350136 0.03412715 -0.00838539
-0.01749998 0.00747152 0.02438412
-0.00803553 0.03192273 0.00652478
-0.01749998 0.02378658 -0.00211894
0.01527870 -0.02322809 0.02792496
0.01449996 -0.00427455 -0.01362750
-0.01749998 -0.02744343 0.02412749
0.00253136 0.00147269 -0.01904714
0.01449996 -0.00064465 0.00720248
-0.01475028 0.03217783 -0.01975974
-0.01731735 -0.02907449 0.02243962
-0.01449996 0.00374599 -0.01699567
-0.01449996 0.01697099 0.02591258
0.01449996 -0.02258875 -0.01859013
0.01503493 -0.03305308 -0.00222738
0.01749998 0.02068526 0.02666493
0.00270017 0.03498843 0.02709973
-0.00592198 -0.03200000 0.01934497
-0.00257539 -0.03499996 0.01112266
0.01749998 0.02396700 0.01825338
0.01109414 0.03479481 0.02742553
-0.01110670 0.03491767 0.01079803
0.00281115 0.03499996 0.00795019
-0.01443075 0.02539506 -0.00140534
0.01449996 -0.01864685 0.00923428
0.00264084 0.03499996 0.00615294
0.01480942 -0.03324907 0.01953260
-0.00294425 0.03200000 -0.00061075
0.01449996 -0.01813915 -0.01083710
0.00740216 -0.03197123 0.02287133
0.00093181 0.03499996 0.02249409
0.00167795 -0.03499996 0.00209095
-0.00283299 -0.03499996 0.01110278
-0.01143106 -0.01169131 -0.01904714
-0.01449996 -0.02090534 0.01780599
0.00848193 0.03392694 0.02795284
-0.01749998 -0.00715313 0.02582562
-0.01294393 -0.03438904 -0.00237649
0.01749998 -0.01786186 0.02417374
-0.01749998 -0.00664604 0.00872140
-0.01749998 0.00867393 0.00235324
-0.01449996 0.02224480 -0.00897414
0.01449996 0.00550438 0.02284881
-0.01421881 -0.01438237 -0.02173044
0.01185356 -0.03019685 -0.00459387
-0.01749998 0.01509257 0.01383564
-0.01449996 0.01866575 0.01300931
-0.01749998 0.02267988 -0.01505382
0.01357440 -0.02809324 0.00881250
0.01749998 0.00792169 0.00746559
-0.01449996 0.02349429 0.01662047
0.01449996 -0.00474600 0.01594804
-0.00947769 -0.03157057 -0.00575706
-0.01074222 0.03494687 0.00626719
-0.00083667 -0.02946270 -0.02204710
-0.01477753 -0.01981107 0.02764201
-0.01628381 0.03159216 -0.01017865
0.01213139 0.01322360 -0.02204710
-0.00118556 0.00624526 -0.02204710
0.00760425 -0.01975434 -0.02204710
0.01449996 -0.01542852 0.00567073
0.01741324 -0.01458094 0.02735306
0.01749998 0.00434305 0.01990478
0.01449996 0.01546168 -0.00393998
0.00877691 0.03176269 -0.01603286
0.00386639 0.03499996 -0.01674670
0.01749998 0.01221142 0.00099349
-0.01449996 -0.00960721 0.02463022
-0.01749998 0.00371882 0.00778802
-0.01449996 0.01008573 -0.00160429
-0.01449996 -0.00101383 0.01959634
-0.01749998 0.01425700 -0.01041138
0.00920842 0.02925055 -0.02204710
-0.01328665 -0.03384485 -0.01881705
0.00814312 0.03220205 0.02765525
-0.01449996 -0.00777764 0.01721878
-0.01507329 -0.01220918 -0.02131625
0.00656272 0.03310021 -0.02095441
0.01041740 0.02296014 -0.01904714
0.01449996 0.00174692 0.00324191
0.00253570 -0.01650993 -0.01904714
-0.01449996 0.00034434 0.01152831
-0.01749998 0.01285729 0.01122309
-0.00651706 -0.03200000 0.00841661
0.01292386 0.03439685 0.00170844
-0.01449996 -0.00716005 -0.00748783
0.00909718 0.03168581 0.01423096
0.00500444 -0.01436310 -0.01904714
0.01312673 0.03431682 0.01687373
0.00280762 -0.03200000 -0.01729011
0.01057507 -0.01918013 -0.01904714
0.00881363 -0.01535496 -0.01904714
-0.01749998 0.02404845 0.02040098
-0.01749998 -0.00513216 0.01470752
-0.00418395 -0.03200000 -0.01003904
-0.00674087 0.02842603 -0.02204710
0.00634420 -0.03200000 0.02081067
0.01749998 -0.02161347 -0.00227382
-0.01749998 0.00928626 0.00882107
0.01749998 0.02718326 -0.00298543
0.01507972 -0.03301138 0.02152979
0.00426839 -0.03001027 -0.01904714
-0.01722222 0.02949721 0.00830866
-0.01607368 -0.03189952 -0.01437474
-0.01651226 -0.03120140 0.02045578
-0.00825672 -0.01772622 -0.01904714
-0.01749998 0.01038312 0.01535898
-0.01727236 -0.02904666 -0.01765213
-0.00793337 -0.03163827 -0.02176380
0.00320029 0.03499996 -0.00393566
0.01449996 0.01696445 0.01476089
0.00895713 0.01893157 -0.01904714
-0.01749998 -0.02609460 -0.00217579
0.00595452 -0.01281569 -0.02204710
-0.01449996 0.00999078 0.01431365
-0.01449996 0.01071577 -0.01145549
0.01746660 -0.02796655 0.02173357
0.01237892 -0.02972203 0.00110289
-0.00172808 0.01344130 -0.01904714
0.01539862 -0.01789663 -0.02111691
-0.01091986 -0.02102398 -0.02204710
0.00359722 0.03499996 0.00097254
0.01467177 -0.02473020 0.02753623
0.00850634 -0.03499996 0.00285174
0.01449996 -0.01524388 0.02267581
-0.01749998 -0.01540169 0.00992869
-0.01449996 -0.01226242 0.00402677
-0.01132115 0.03062723 0.01530168
-0.01668942 0.02518797 -0.01975047
-0.01713913 -0.02902846 0.02752345
0.01449996 -0.02083938 -0.00091176
-0.01449996 0.00097183 0.01569146
-0.00802943 0.03401090 -0.02002601
0.00497943 -0.01151371 -0.01904714
0.01749998 -0.01606645 -0.00842566
-0.01449996 -0.01580922 -0.00465279
-0.01449996 -0.01041461 0.02563339
0.01365903 0.03403661 -0.00079831
-0.00034537 -0.03200000 0.01558885
-0.01749998 -0.01982340 0.02105812
0.01659252 0.02939177 -0.01946968
0.01125555 0.03067209 0.00456700
-0.01749998 -0.02306360 -0.00033186
-0.01102804 -0.03082301 0.02190874
-0.00399864 -0.03200000 -0.01335693
0.01046126 -0.01010520 -0.02204710
-0.01146439 -0.02397957 -0.01904714
0.00302803 0.02528040 -0.02204710
0.01562610 -0.00922022 -0.02093234
-0.01449996 0.01967102 0.02672185
-0.00836793 -0.01213984 -0.01904714
-0.01748573 0.00713219 -0.01722818
0.00713493 0.03499996 0.00187108
0.01749998 0.00747962 -0.01364921
0.00804981 -0.03499996 -0.01564483
-0.01255251 -0.01830356 -0.01904714
0.01449996 -0.02034533 -0.01477307
0.00100952 -0.03200000 -0.01582249
-0.01393442 0.00648118 -0.02182898
0.01749998 -0.00984444 0.02313447
0.01683911 0.02564045 -0.01950621
0.01600159 0.03072134 -0.01952315
0.01219572 0.02990079 -0.01044041
0.01749998 -0.00572593 0.02415645
-0.01749998 0.01421220 -0.01139342
0.01449996 0.00232586 0.02532750
-0.01749998 -0.00104163 -0.00781639
0.01449996 -0.02409174 -0.01676345
0.00609661 0.03189060 -0.02165927
-0.01289130 -0.03440953 -0.01429429
-0.01449996 -0.00409612 -0.01282427
0.01453668 -0.03346568 0.01981550
-0.01749998 -0.01786220 0.00592565
-0.01284147 0.02918016 -0.00989183
0.00309692 -0.03499996 0.02649302
0.01316231 0.02876984 0.00646316
0.00785919 -0.00103446 -0.02204710
-0.01413330 -0.02611047 -0.02176586
-0.00948390 -0.03499996 -0.00041032
-0.01713383 -0.01856332 -0.01888535
0.01749998 -0.01111683 0.00936910
-0.00526095 0.03200000 0.01794343
-0.01524985 -0.00830735 -0.02120806
0.01152070 -0.03482944 0.02109490
-0.00281487 0.03146690 -0.02182118
0.01449996 0.00597498 -0.00155414
-0.01383677 -0.02756210 0.00935991
0.00970257 -0.00450930 -0.01904714
0.00175411 0.01513347 -0.02204710
0.00985584 -0.03499996 -0.01165350
0.00343309 0.03200000 0.02322033
0.00274483 0.02053957 -0.01904714
-0.01749998 0.02184963 0.00345068
0.01749998 0.01039049 -0.01024536
-0.01122570 0.00508547 -0.01904714
0.01749998 0.02501958 0.01083112
0.01449996 -0.00312442 0.01324746
-0.01749998 0.02570186 -0.00075357
0.01443233 0.02544537 0.02656032
0.01449996 -0.02154187 -0.01876067
-0.00413473 0.00801731 -0.01904714
0.00164331 0.03200000 0.02366609
-0.01518966 0.03043944 0.02795284
0.01749998 -0.01232389 -0.01531663
0.01749998 -0.00735461 0.00475473
-0.01632619 -0.00033748 -0.02024229
0.00775251 0.03194074 -0.01139650
-0.01749998 -0.02704515 -0.00880190
0.00451369 -0.01361228 -0.01904714
-0.01749998 0.02461114 -0.00715136
0.01749998 -0.01925153 0.02229501
-0.00869652 -0.03499996 0.00679038
-0.01749998 -0.02552258 -0.00859944
0.01449996 0.00293659 0.01119267
0.00684572 0.03200000 0.00350472
-0.01749998 -0.00843373 -0.00577497
-0.01749998 -0.00987726 -0.00539279
-0.01225914 0.02984437 -0.00233479
-0.01749998 0.00033417 0.01408399
-0.01749998 -0.00251845 -0.01479704
0.01442559 0.02551948 0.01627673
-0.01711033 0.01893400 0.02774258
0.00705011 -0.00242624 -0.01904714
0.01749998 -0.01856893 0.02077343
-0.01449996 0.00584145 0.01077234
0.00481127 -0.03499996 -0.00229554
-0.00811274 -0.01330935 -0.01904714
0.00159178 0.03499996 0.01150532
0.00559018 -0.03499996 0.01300711
-0.01449996 -0.01970395 0.00376652
0.00459020 0.00171100 -0.02204710
0.01614213 -0.02153539 -0.02045780
0.00876736 -0.00707438 -0.02204710
-0.01449996 -0.00886951 0.00646524
0.01083594 0.01694342 -0.02204710
0.01749998 -0.00562046 0.01376468
0.01449996 0.00064617 -0.01564560
-0.00815331 -0.02981291 -0.02204710
0.00048003 0.03237678 0.02773163
0.00697587 0.03200000 0.01552884
0.01449996 0.01407260 -0.01590576
-0.01174797 0.00372064 -0.01904714
0.01749998 -0.00178271 -0.00149371
-0.01749998 -0.00671807 0.01455531
0.01449996 -0.02254829 0.01640310
-0.00751266 -0.03195963 0.00471413
0.01741696 -0.02861148 0.00848812
0.00946525 0.03157510 -0.01125621
0.00272193 -0.00417348 -0.01904714
-0.00640319 0.02306816 -0.02204710
-0.01416408 0.01801302 -0.01904714
-0.01449996 -0.02312409 -0.01116903
-0.01449996 -0.01058814 0.00377908
0.00085939 0.03200000 -0.01861063
-0.01219985 0.02989959 0.02658470
-0.01023766 -0.02372744 -0.02204710
-0.01449996 0.00359140 0.00519825
0.01749998 0.01607584 0.00614845
-0.00270455 -0.03499996 -0.00622143
-0.01749998 0.00444434 -0.01625542
0.01749998 0.01320398 0.01416448
-0.01538276 -0.03267423 0.02712446
-0.01749998 0.00528448 0.02126484
0.01365035 0.03404160 -0.00888992
-0.00630248 0.03499996 -0.00457435
0.00347633 -0.02800608 -0.01904714
0.00348523 -0.03200000 0.01124085
0.00238299 0.03499996 0.01055257
0.01749998 -0.00617072 0.02652151
0.01358294 0.02807508 -0.01046465
-0.01262503 0.02944060 -0.00072076
0.01666198 0.03094062 0.01921583
0.00439203 0.01541002 -0.01904714
-0.01749998 0.01784269 0.02344874
0.00879421 0.03499996 -0.00291968
-0.01735578 0.02890373 -0.00365994
-0.01449996 0.00293202 0.02310447
-0.01749998 0.01866109 -0.00889024
-0.01449996 -0.00563313 0.01804839
0.01749998 -0.00545057 -0.01294650
0.01749998 0.00089916 0.01017397
0.00550016 0.03499996 0.00209140
-0.01004710 -0.03133857 -0.00087058
-0.01449996 -0.01957506 -0.00850329
0.01449996 0.00683574 0.01350885
0.01749998 -0.01039817 0.00032896
0.01449996 0.01921219 0.02502008
-0.00032680 -0.03200000 0.01665055
-0.01441281 0.02563065 0.00751221
0.01749998 0.02482058 -0.00994433
0.01449996 -0.01928262 0.01104124
-0.01697720 0.02028722 -0.01926353
-0.01749998 0.01994423 0.02619257
-0.01449996 0.01800531 0.00989150
0.01449996 0.00312567 0.00989997
0.00871204 0.03499996 0.00445927
