# .PCD v0.7 - Point Cloud Data file format
VERSION 0.7
FIELDS x y z
SIZE 4 4 4
TYPE F F F
COUNT 1 1 1
WIDTH 1000
HEIGHT 1
VIEWPOINT 0 0 0 1 0 0 0
POINTS 1000
DATA ascii
0.00293393 -0.05201846 0.00227973
-0.00289767 -0.01749350 -0.00064209
0.00213039 0.03262766 -0.00185874
-0.00281186 -0.03783082 -0.00116841
0.00407957 -0.02493196 -0.00245890
0.00142799 0.01692077 0.00390518
0.00085160 -0.03417028 -0.00349835
-0.00453723 0.03899863 0.00002338
0.00408942 -0.03042432 -0.00228627
-0.00483016 -0.02840491 -0.00402831
0.00619007 -0.04770078 0.00023638
-0.00301668 -0.04026872 -0.00226369
-0.00431118 0.01334508 0.00205521
0.00399541 0.05192867 -0.00062255
-0.00770017 -0.05381550 0.00460278
-0.00294443 0.05767819 -0.00144229
-0.00045153 0.06228937 0.00406806
0.00294287 -0.02894157 -0.00400365
-0.00337032 0.04700664 -0.00117122
-0.00460225 0.00010667 0.00094255
-0.00460225 0.02363294 0.00166511
0.00103208 -0.04136883 -0.00028634
0.00416755 0.04939427 -0.00042584
-0.00771488 -0.04503089 0.00089784
-0.00544653 -0.04582374 0.00057753
-0.00460225 0.04155155 0.00125180
0.00460303 0.03750618 0.00090442
0.00338399 0.00872193 0.00296432
0.00038593 0.06266130 -0.00080631
-0.00792443 -0.02595274 -0.00407224
-0.00639886 -0.04473318 -0.00090672
0.00237996 -0.01808906 -0.00080167
-0.00124400 0.00213045 -0.00214258
0.00752067 -0.04314028 0.00024928
0.00050026 0.01717798 0.00406705
-0.00128488 -0.04318714 -0.00141493
0.00667981 -0.05355833 0.00492848
-0.00359144 -0.00874428 0.00013455
-0.00397227 0.00683917 -0.00064221
0.00048526 0.02644314 0.00407002
-0.00319958 -0.04232362 -0.00036685
0.00448483 -0.02070719 -0.00150319
0.00004924 -0.03012575 -0.00391882
0.00456890 0.01788020 0.00174361
-0.00401916 0.05717323 -0.00060106
0.00593694 -0.05461265 0.00368175
0.00318232 -0.02892743 -0.00400450
0.00460303 0.02616316 0.00075299
0.00292104 -0.00494151 0.00326189
0.00340342 0.03089799 -0.00114276
0.00015794 0.03332240 -0.00228510
0.00906576 -0.02654534 -0.00407161
0.00460303 0.03008824 0.00104967
0.00300315 -0.00083059 -0.00140586
0.00260959 -0.02809355 -0.00243631
-0.00460225 0.00184012 0.00035046
0.00271645 -0.04373422 -0.00122328
0.00048662 0.03612677 -0.00226886
0.00265353 0.05511318 0.00342990
-0.00538329 -0.04476016 -0.00003110
0.00212013 0.02131772 -0.00186308
-0.00114205 -0.04751969 0.00115308
0.00193115 0.06266133 -0.00189437
-0.00154879 -0.00203075 0.00387017
0.00760933 -0.03478930 -0.00339227
-0.00576375 -0.02836950 -0.00402916
0.00670202 -0.04261901 0.00007650
0.00154687 0.02777988 -0.00207282
-0.00250763 0.03009364 0.00350318
-0.00010188 -0.03268722 -0.00367777
0.00007082 0.02942003 -0.00229209
-0.00396070 -0.00227615 -0.00065237
-0.00883140 -0.02867686 -0.00401715
-0.00434070 0.03626551 0.00201940
-0.00202372 -0.04191084 -0.00012781
0.00254744 0.04049036 0.00348663
0.00262043 -0.02779381 -0.00244748
0.00460303 0.05268764 0.00150273
-0.00602733 -0.04418420 0.00059610
-0.00085279 0.02136945 -0.00223215
-0.00300263 -0.03802267 -0.00276059
0.00425189 0.00809375 0.00212801
0.00186250 -0.01452104 0.00015439
0.00842838 -0.04367234 0.00019354
-0.00423452 0.01801875 0.00214818
-0.00099240 0.04991931 0.00400686
-0.00186969 -0.01427775 -0.00143687
-0.00411668 0.02424235 0.00229109
0.00239921 -0.00455056 0.00354938
-0.00298316 0.04346726 0.00322245
-0.00115003 -0.04068617 -0.00215507
0.00580133 -0.05239029 0.00247718
-0.00319958 -0.03456173 -0.00223459
0.00227130 -0.04632550 0.00143473
-0.00654279 -0.05247216 0.00248161
-0.00460225 -0.00290979 0.00130275
-0.00514699 -0.03267753 -0.00367791
0.00355296 -0.00186753 -0.00101134
-0.00363674 0.05898485 -0.00093711
0.00274438 0.06179843 0.00337286
-0.00258599 -0.04239834 -0.00162617
-0.00379082 0.02138308 0.00260616
0.00460303 0.02645325 0.00127847
-0.00777683 -0.05300389 0.00360454
-0.00173078 -0.05384774 0.00324251
0.00011338 -0.01640024 -0.00034914
-0.00372500 -0.02118280 -0.00163064
0.00332596 -0.03053816 -0.00228559
0.00582882 -0.03113520 -0.00384367
-0.00331784 0.05001543 -0.00120780
-0.00415489 -0.00207626 0.00224475
0.00333609 0.05290152 -0.00119679
0.00450874 0.00453509 -0.00001211
-0.00497523 -0.03169731 -0.00218808
-0.00418693 -0.00736249 0.00220590
-0.00267516 -0.00362741 -0.00161138
0.00350135 -0.00208671 -0.00105669
0.00320035 -0.04832962 0.00163581
0.00119727 0.05865687 -0.00077835
0.00582925 -0.03812846 -0.00112766
-0.00230411 -0.00874428 -0.00018097
-0.00747088 -0.03204720 -0.00375341
0.00014771 -0.01261609 0.00066482
0.00131772 0.02951372 -0.00212604
0.00110447 0.03116827 0.00398740
-0.00404893 0.03169338 0.00237325
0.00655887 -0.04626007 -0.00032655
-0.00025492 0.05505889 -0.00229015
0.00022510 0.03791871 -0.00227970
-0.00695227 -0.04353373 -0.00130929
-0.00153836 0.04279910 -0.00207497
0.00376200 0.03755721 0.00263212
-0.00018384 0.06266131 0.00085980
-0.00292637 -0.01000284 -0.00029138
-0.00054452 -0.03673547 -0.00187156
0.00291474 -0.01706802 -0.00218452
0.00936585 -0.02714974 -0.00330381
0.00320035 -0.04988133 0.00185338
-0.00763809 -0.03734902 -0.00294092
0.00226295 0.05121345 0.00360710
0.00546177 -0.04631546 -0.00000901
-0.00353670 -0.00371919 0.00282949
0.00326249 -0.03075983 -0.00387114
-0.00316093 0.01057215 -0.00130633
-0.00435011 0.04399614 -0.00020356
0.00365712 0.03470179 -0.00091982
0.00279507 -0.00191789 0.00334099
0.00459470 0.03077557 0.00171232
0.00250462 0.01175031 -0.00170029
-0.00325991 -0.00300620 0.00304866
0.00030774 0.05750581 0.00268673
-0.00397730 -0.01733621 -0.00059994
0.00346384 0.05668264 -0.00108967
-0.00523123 -0.04214908 -0.00124365
0.00351166 0.04117179 -0.00104765
0.00673952 -0.04989491 0.00119748
0.00299334 0.04645218 0.00321652
0.00460303 0.03750539 0.00076943
-0.00164133 -0.01708827 -0.00053350
0.00365709 -0.00970753 0.00037174
-0.00490966 -0.02465830 -0.00245141
0.00061217 0.06020863 0.00406680
0.00183062 0.00261430 -0.00198566
0.00303673 0.06266132 0.00087862
0.00183007 0.03342355 0.00379039
0.00646783 -0.05027217 0.00314758
0.00138536 0.00139062 -0.00210594
-0.00861676 -0.03684199 -0.00140885
0.00180484 0.03384084 -0.00199661
-0.00012906 0.05985225 -0.00110972
0.00467489 -0.01681156 -0.00084786
0.00076356 -0.04054391 -0.00053524
-0.00318715 -0.01689297 -0.00213760
-0.00283905 0.02432989 0.00331294
0.00566341 -0.03965580 -0.00242166
-0.00000675 0.06212056 0.00410216
0.00641488 -0.05461357 0.00369824
0.00665122 -0.05282890 0.00268814
-0.00332814 -0.00874426 0.00214919
0.00651402 -0.05481728 0.00381810
0.00143356 0.03176286 0.00390840
0.00177026 -0.05265250 0.00440013
-0.00460225 0.05278140 0.00138370
0.00687761 -0.03841580 -0.00270603
-0.00438836 0.05703312 0.00196160
0.00190110 0.02080169 -0.00195584
0.00421471 0.02331935 0.00217309
0.00808151 -0.04880691 0.00150902
-0.00406798 0.01232163 0.00235015
0.00346028 0.00405557 -0.00109278
-0.00304041 0.01313169 -0.00138201
0.00088192 -0.03878859 -0.00097283
-0.00018961 -0.00478324 -0.00228325
0.00107452 0.06058778 0.00398269
0.00068912 0.04563221 -0.00225402
-0.00649000 -0.03737562 -0.00129988
0.00041337 -0.03452841 -0.00324626
0.00074908 -0.00237515 -0.00223764
-0.00783243 -0.03768065 -0.00287731
-0.00439199 0.04392470 -0.00015277
-0.00764963 -0.05444808 0.00510631
-0.00622360 -0.04161906 -0.00189043
0.00860026 -0.02455159 -0.00368229
-0.00023657 0.03010872 -0.00228614
0.00268305 0.05667882 0.00341136
-0.00324789 0.05576416 0.00305622
0.00934406 -0.03026760 -0.00357565
-0.00080062 -0.01465661 0.00011807
-0.00385315 0.04310451 0.00255138
0.00104379 -0.02513490 -0.00246441
-0.00429123 0.02182761 0.00207940
0.00024626 0.02220062 0.00408839
0.00336342 0.03411336 -0.00117791
-0.00315166 0.00292600 -0.00131215
0.00276026 0.03403853 -0.00155839
0.00435432 0.03145196 -0.00019936
-0.00042697 -0.00874427 -0.00091049
0.00879719 -0.03846706 -0.00180506
0.00218314 0.03449946 0.00364088
-0.00067492 -0.00226677 0.00404803
-0.00388165 -0.01207339 0.00001209
0.00638678 -0.02859571 -0.00401978
-0.00533541 -0.03674291 -0.00143673
-0.00064553 0.01392760 -0.00225022
-0.00801279 -0.04702648 0.00169683
-0.00451014 0.01205132 0.00181393
0.00139533 0.03295658 -0.00211324
0.00463536 0.01069664 0.00042555
0.00446813 0.05994896 -0.00006135
-0.00461540 0.00934292 0.00018042
0.00700650 -0.04961030 0.00106428
0.00025702 -0.01465630 -0.00153829
0.00320035 -0.05148328 0.00247336
-0.00259707 0.03438660 0.00346489
0.00289623 -0.01938030 -0.00280409
-0.00232726 0.00992199 0.00357954
0.00211933 0.04609887 -0.00186344
0.00044389 0.01590611 0.00407133
-0.00460225 0.00582769 0.00162520
0.00122250 -0.04866166 0.00228993
-0.00343475 -0.03144683 -0.00220829
-0.00074787 0.04195980 -0.00224665
-0.00460225 0.03809463 0.00148553
-0.00155084 -0.04551528 -0.00061787
0.00853275 -0.04070744 -0.00215164
0.00829881 -0.03986743 -0.00071575
-0.00409005 -0.00352232 -0.00051889
-0.00431929 0.02312526 0.00204538
-0.00137047 -0.03034304 -0.00390197
-0.00218419 0.00936344 0.00364012
0.00892679 -0.03615160 -0.00317614
0.00139348 0.04709095 0.00391940
-0.00460225 0.00475676 0.00035278
0.00217757 -0.02479797 -0.00405574
-0.00257001 0.01865278 -0.00167230
0.00460303 -0.00713564 0.00019386
-0.00162128 0.01733054 0.00385666
-0.00392471 -0.00491695 0.00248851
-0.00915658 -0.03307868 -0.00287946
0.00398317 -0.01286331 -0.00039927
-0.00890687 -0.02530625 -0.00264561
-0.00458804 0.05476669 0.00008500
0.00359782 0.04771432 0.00277641
0.00201575 -0.04262189 -0.00158104
0.00345136 0.01027710 0.00290511
0.00740727 -0.04780332 0.00200732
0.00864851 -0.02888045 -0.00240513
-0.00570620 -0.02982379 -0.00394012
0.00258220 0.02553222 -0.00166744
-0.00362273 -0.00521144 0.00275388
0.00531879 -0.04355682 -0.00034122
-0.00585114 -0.05053382 0.00149669
-0.00933008 -0.02920728 -0.00237927
0.00626727 -0.04033645 -0.00059819
0.00440466 -0.02629666 -0.00246712
0.00401111 0.03309485 0.00241320
-0.00196733 0.01274044 -0.00192747
0.00082549 -0.00935202 -0.00011700
0.00045945 -0.03525767 -0.00283391
0.00233695 -0.04641661 0.00147171
-0.00142492 0.00560574 0.00390058
0.00266074 0.01300600 -0.00162089
0.00356910 0.02376621 0.00280165
-0.00452054 0.05776417 0.00000315
-0.00399821 0.03340956 -0.00061944
0.00036691 -0.03178384 -0.00378675
0.00490170 -0.02895763 -0.00239675
0.00159331 0.06123477 -0.00206011
0.00233026 -0.00752171 -0.00177411
0.00118241 -0.00162695 0.00396158
0.00277201 0.00720273 0.00335548
-0.00243477 -0.01453826 -0.00150667
-0.00939866 -0.02932815 -0.00237241
-0.00347305 0.02827221 0.00288543
-0.00300492 -0.04004902 -0.00231238
0.00329710 0.00627979 -0.00122127
-0.00460225 0.06111895 0.00127029
-0.00212278 -0.04606236 0.00131367
-0.00432942 0.05198352 0.00203308
0.00414151 -0.01393132 0.00011095
0.00176426 -0.01050179 0.00123133
-0.00851190 -0.03636521 -0.00313039
-0.00840951 -0.04185985 -0.00182539
0.00803437 -0.02714457 -0.00406470
0.00052717 0.02436216 -0.00226038
-0.00123176 0.04570270 0.00395882
0.00224786 0.05689005 0.00361349
0.00357553 -0.01635428 -0.00199324
-0.00762292 -0.05471463 0.00497278
0.00254768 -0.01913236 -0.00273765
0.00131088 0.03614883 -0.00213245
0.00771579 -0.05350746 0.00471151
-0.00642177 -0.05558750 0.00425767
0.00022648 0.01480593 -0.00227959
0.00460464 0.00853220 0.00139047
-0.00265225 0.01899115 0.00343023
0.00574827 -0.04607774 0.00131534
-0.00460225 0.00112706 0.00160084
-0.00193307 -0.02498136 -0.00246027
0.00184562 -0.01905829 -0.00106137
-0.00460247 0.01327291 0.00149598
-0.00644231 -0.02187318 -0.00347206
-0.00782505 -0.03161638 -0.00219296
-0.00447347 -0.01561716 -0.00122839
-0.00349911 0.04818926 0.00286252
-0.00320995 0.04107913 0.00308004
0.00221792 -0.03778628 -0.00281938
0.00460303 0.00495661 0.00132316
0.00296606 0.02362301 0.00323364
-0.00612153 -0.04767978 0.00023549
0.00151696 0.00236881 -0.00207369
0.00875591 -0.03902900 -0.00144103
0.00086362 0.03857076 -0.00223062
-0.00214827 -0.02269926 -0.00369340
-0.00460225 0.02887113 0.00127455
-0.00191562 -0.01219804 0.00077684
0.00249416 0.00704941 -0.00170472
0.00859640 -0.02966962 -0.00396313
-0.00460225 0.05497208 0.00166406
0.00747523 -0.05037756 0.00320070
-0.00078210 0.03887065 -0.00224235
0.00149292 0.05113356 0.00389210
0.00169903 -0.05056124 0.00151654
0.00164185 0.02657247 -0.00204675
-0.00191460 -0.03918025 -0.00087549
-0.00123335 -0.04922017 0.00160184
-0.00007191 0.06073574 0.00410151
-0.00460225 0.00512431 0.00144565
-0.00293910 -0.01168505 0.00091429
-0.00049220 -0.02159973 -0.00174236
0.00198801 0.06015414 -0.00191907
0.00610954 -0.02479224 -0.00405556
-0.00931029 -0.03073768 -0.00300492
0.00123095 -0.00865940 -0.00214373
-0.00150610 -0.04348415 0.00035910
-0.00152966 0.03726743 0.00388181
0.00114845 0.02858556 0.00397609
-0.00092323 -0.04256156 -0.00160854
0.00169837 0.05876237 0.00383571
0.00202153 0.04949525 0.00370932
-0.00354289 0.01590308 -0.00101956
-0.00558381 -0.04586296 0.00123032
0.00549387 -0.04689276 0.00020794
-0.00434113 0.02365590 0.00201889
0.00287686 0.03608918 -0.00148517
-0.00319958 -0.04517594 -0.00058700
0.00140154 0.04010959 -0.00211272
0.00392886 -0.01259896 0.00055790
-0.00123012 -0.04694951 0.00165831
-0.00893445 -0.02843352 -0.00402696
0.00294301 0.01743936 -0.00144363
-0.00242291 -0.02662349 -0.00246623
-0.00385668 0.01883297 -0.00074380
0.00591680 -0.01952572 -0.00128411
-0.00319544 -0.01870759 -0.00096740
0.00183261 0.00513386 -0.00198482
-0.00473610 -0.02373913 -0.00231561
0.00411206 0.01950210 0.00229757
-0.00319958 -0.05169681 0.00365679
0.00143655 0.02394478 0.00390453
-0.00123674 -0.04104095 -0.00038991
0.00104080 0.05290407 -0.00219601
0.00460303 0.00324651 0.00137239
0.00790520 -0.04226130 -0.00171185
0.00853490 -0.04223632 -0.00054898
0.00045539 0.01472370 -0.00226122
0.00113113 -0.01996615 -0.00130463
-0.00212006 -0.00897589 -0.00001621
0.00294773 -0.00764157 -0.00144066
-0.00110903 -0.04688067 0.00108194
0.00032873 -0.01555710 -0.00012322
-0.00552097 -0.01852729 -0.00207237
-0.00804619 -0.04902100 0.00231503
0.00488281 -0.03561532 -0.00229123
-0.00223258 0.03154162 -0.00181519
0.00022998 0.02160410 0.00408959
-0.00276479 -0.01041761 0.00125388
0.00881548 -0.03813613 -0.00160639
0.00164677 0.05453770 -0.00204543
0.00298206 -0.02573515 -0.00407040
-0.00773783 -0.04670753 -0.00015745
0.00056532 -0.02266365 -0.00202744
0.00847058 -0.04330768 -0.00068441
0.00712572 -0.02929080 -0.00398449
0.00092250 0.05942333 -0.00043814
0.00244806 -0.00200320 0.00352869
-0.00337149 0.06080938 0.00297468
0.00311032 0.03682891 0.00314306
0.00461494 0.01244973 0.00084372
0.00720446 -0.04312087 -0.00142894
0.00348433 0.00473166 -0.00107165
0.00385627 -0.02372285 -0.00231125
0.00114857 0.06250482 -0.00216424
0.00350472 0.00964802 -0.00105374
0.00799925 -0.02346509 -0.00389861
0.00123113 0.00575519 -0.00214378
0.00114912 0.04780406 0.00397987
-0.00071889 -0.04015389 -0.00207406
0.00024277 0.00472391 0.00408535
0.00283846 -0.03497252 -0.00175255
-0.00229733 -0.04593315 0.00126491
0.00541734 -0.04459915 -0.00094960
-0.00518588 -0.01974926 -0.00290295
0.00230431 -0.00850135 0.00358956
0.00273147 -0.00437869 0.00338093
0.00327643 0.01884333 0.00303874
-0.00123590 -0.01342698 0.00044755
-0.00460225 0.06222776 0.00167558
-0.00462228 0.00982714 0.00059115
0.00099195 -0.04488243 0.00005807
0.00221064 0.01167782 0.00362923
0.00123957 0.05067815 0.00396011
-0.00575385 -0.02581525 -0.00406987
0.00106527 0.02167653 0.00399507
0.00194241 -0.03045302 -0.00389444
0.00006481 0.01418932 -0.00229257
-0.00158514 0.01925666 0.00386658
-0.00732445 -0.02466214 -0.00245152
0.00282100 -0.04696006 -0.00003499
0.00238777 -0.04999281 0.00303535
-0.00719208 -0.02398109 -0.00238043
-0.00046574 -0.03542449 -0.00294594
0.00379901 0.03032319 -0.00079513
-0.00806242 -0.02446318 -0.00244606
0.00122077 0.05780423 0.00396680
0.00219326 0.02619748 0.00363659
0.00268663 -0.03393696 -0.00352665
0.00136619 -0.02131285 -0.00332191
-0.00460225 0.03269461 0.00159142
-0.00585102 -0.05255361 0.00423009
0.00587328 -0.05202006 0.00225548
0.00033211 0.02595641 0.00408222
-0.00813758 -0.04499780 0.00088600
0.00306291 0.04586627 -0.00136834
-0.00671178 -0.03884555 -0.00096917
0.00345235 -0.02727103 -0.00406216
-0.00318829 0.03701949 0.00309364
0.00432498 0.04888273 -0.00023493
-0.00134814 -0.01641961 -0.00035434
0.00022339 0.05685961 -0.00229272
0.00550849 -0.01984525 -0.00127224
0.00155899 -0.05005468 0.00304580
0.00620350 -0.05098167 0.00351546
0.00531453 -0.04345543 -0.00028345
-0.00593751 -0.02997207 -0.00232156
-0.00222193 0.05543526 -0.00181970
0.00269242 -0.00016563 0.00340545
0.00022607 0.03087564 -0.00227963
0.00334127 -0.01037211 0.00126608
-0.00188148 -0.05368198 0.00314730
0.00320166 0.01455247 -0.00128121
-0.00460225 0.06055593 0.00112586
-0.00109683 -0.02406989 -0.00403437
-0.00433814 0.03260180 -0.00021808
0.00148252 0.02577228 0.00389496
-0.00157041 0.05698405 -0.00206618
-0.00934677 -0.03022610 -0.00379748
-0.00124824 0.01116169 0.00394392
0.00290569 -0.01003337 0.00135684
0.00120391 0.01518653 -0.00215051
-0.00904587 -0.03481007 -0.00298249
-0.00280658 -0.01527446 -0.00004749
-0.00489896 -0.03590169 -0.00205645
-0.00110310 -0.04658412 0.00149640
0.00413739 0.00411184 -0.00046237
-0.00649482 -0.04165281 -0.00021096
-0.00316220 0.02941340 0.00311002
-0.00201898 0.05159599 -0.00190564
0.00820897 -0.04693282 0.00096727
0.00180941 -0.05462790 0.00554841
0.00542805 -0.04563386 -0.00003506
-0.00189501 0.04440400 -0.00195812
0.00460303 0.02226732 0.00116386
0.00021828 0.06266132 0.00275553
-0.00434848 0.00845193 -0.00020552
-0.00565357 -0.04960827 0.00169442
-0.00460225 0.02689381 0.00139267
-0.00275201 0.02759724 -0.00156312
-0.00208206 0.03965259 0.00368337
-0.00785168 -0.05203007 0.00297805
0.00518457 -0.04124067 -0.00144682
-0.00460225 0.05314158 0.00099973
0.00301453 0.03419594 0.00320321
0.00250546 0.02225900 0.00350440
0.00808182 -0.02863053 -0.00241631
0.00829210 -0.02718823 -0.00406383
0.00109524 0.05914339 -0.00166823
-0.00908895 -0.03366110 -0.00195578
0.00267363 -0.03800168 -0.00276796
0.00244799 -0.04450440 -0.00098632
0.00124478 0.00249256 -0.00214041
-0.00312317 -0.02222143 -0.00356537
-0.00046785 0.05756077 -0.00142926
0.00266630 -0.01775272 -0.00236798
-0.00105124 -0.03051464 -0.00228185
0.00731246 -0.03354899 -0.00356142
-0.00142146 0.01381353 0.00390147
-0.00280312 0.03835400 -0.00153102
0.00418848 0.05315636 0.00220489
-0.00460225 0.03895005 0.00020120
0.00366379 0.03717563 -0.00091396
0.00320035 -0.04126619 -0.00093374
-0.00290539 -0.00779568 -0.00146680
0.00451533 0.05329818 -0.00000410
0.00046222 -0.02382063 -0.00399386
-0.00217735 0.05575023 0.00364303
0.00569277 -0.02718755 -0.00245867
-0.00336627 0.03861013 -0.00117478
0.00790141 -0.05100720 0.00330755
-0.00460225 0.01577477 0.00159722
-0.00333895 0.04723213 0.00299904
-0.00460225 0.05383065 0.00104297
-0.00344480 0.04456532 -0.00110576
-0.00423020 0.03990292 0.00215342
-0.00024463 0.05748953 -0.00191195
0.00061985 0.05968486 0.00277425
-0.00251587 0.04174558 0.00349970
0.00198333 0.03544414 0.00372549
0.00219418 0.03427838 -0.00183173
0.00460303 0.03510993 0.00145541
-0.00772503 -0.04623482 0.00136722
-0.00307492 0.04054163 0.00316482
-0.00319958 -0.03591683 -0.00287866
0.00400272 0.02718302 -0.00061610
0.00433897 -0.00332575 0.00202242
-0.00452027 -0.00104813 0.00000282
0.00509217 -0.03942932 -0.00134549
-0.00442724 0.00855744 0.00191447
0.00872041 -0.03975444 -0.00216995
0.00304002 0.03977325 0.00318720
0.00674663 -0.03595612 -0.00321268
-0.00738806 -0.03128774 -0.00221869
-0.00266551 0.03806949 0.00342192
-0.00040468 0.03314282 0.00407445
0.00341997 0.01586819 -0.00112821
-0.00013065 0.00819498 0.00409172
-0.00299020 -0.01264411 0.00065732
-0.00318762 0.05105506 0.00309407
0.00135607 0.06170504 -0.00211468
-0.00332661 -0.01057078 -0.00044357
-0.00920053 -0.03233408 -0.00221366
-0.00553018 -0.04751124 0.00060625
0.00217476 -0.03226818 -0.00372874
0.00094705 0.01967108 -0.00221350
-0.00065167 0.01143051 -0.00224925
0.00121476 0.03397065 0.00396094
0.00096616 -0.01643561 -0.00201505
0.00304346 -0.02484863 -0.00405709
0.00233791 0.01401838 0.00357533
-0.00028975 0.02408208 -0.00228072
0.00460303 -0.00156123 0.00122514
-0.00559459 -0.04517820 -0.00075387
-0.00252857 -0.01274983 0.00062899
0.00372461 0.04772294 -0.00086052
-0.00114817 0.01812843 0.00396849
0.00492712 -0.03643418 -0.00213213
-0.00516041 -0.03963834 -0.00078214
-0.00520538 -0.01799244 -0.00172176
-0.00407091 0.04047624 0.00234659
-0.00282142 -0.00479248 -0.00151953
-0.00319958 -0.04040896 -0.00074714
-0.00423223 -0.00084000 0.00215096
-0.00215093 -0.05428579 0.00349357
0.00219812 0.03082543 -0.00183006
-0.00351438 0.06153953 0.00284911
-0.00270122 0.03320259 -0.00159502
-0.00086310 0.02808561 -0.00223060
-0.00814621 -0.03101139 -0.00385516
-0.00369771 0.03711111 -0.00088350
0.00458081 0.02786052 0.00007528
-0.00671815 -0.02077280 -0.00259387
0.00562368 -0.02417925 -0.00243351
0.00423105 -0.02183584 -0.00180561
0.00381370 0.04312855 -0.00078223
0.00739223 -0.02776057 -0.00244872
0.00274438 0.03020289 -0.00156836
-0.00008145 0.02678180 -0.00229627
-0.00910845 -0.03371891 -0.00206929
0.00147040 0.04638510 -0.00209383
0.00450634 -0.02508430 -0.00406339
-0.00036094 0.02381872 -0.00227495
0.00086687 -0.02140023 -0.00334533
0.00296715 0.02877055 0.00323296
0.00125798 -0.01759886 -0.00067032
-0.00304252 -0.00022495 0.00318517
0.00425292 -0.03082546 -0.00386689
-0.00232023 0.00526075 0.00358252
0.00207942 -0.00874426 0.00263065
0.00367697 0.04347689 0.00270686
-0.00174141 -0.02975471 -0.00233848
-0.00256193 -0.03513586 -0.00172537
-0.00409713 0.03805469 0.00231479
0.00442708 0.04615192 0.00191557
0.00066014 0.01427007 -0.00224930
-0.00460225 0.03417078 0.00164749
0.00388076 -0.01585472 -0.00020297
-0.00438386 0.03893505 0.00196707
0.00338721 -0.01245168 -0.00094756
-0.00084115 -0.02253712 -0.00364996
-0.00089193 -0.01973105 -0.00289807
0.00195189 0.04231110 -0.00193435
-0.00446707 0.05723119 -0.00006171
-0.00048883 -0.03572630 -0.00215097
-0.00065232 -0.03338685 -0.00198398
-0.00178985 0.01898810 0.00380709
0.00448346 0.00217986 -0.00004275
-0.00109386 0.03586011 0.00398191
0.00035228 0.03958594 0.00408319
-0.00152637 -0.05255235 0.00252909
0.00210551 0.02229828 -0.00186927
-0.00154863 0.03701461 0.00387661
-0.00065586 0.00279507 0.00404956
-0.00147864 0.02245440 -0.00208982
0.00825897 -0.03739031 -0.00130399
0.00408242 0.03474312 0.00233350
0.00241018 -0.03259894 -0.00208108
-0.00543399 -0.03377705 -0.00193363
-0.00042523 0.01125279 -0.00226739
0.00186346 0.05561490 -0.00197181
0.00356376 0.03665832 -0.00100186
-0.00636779 -0.02128690 -0.00165853
0.00240751 -0.03239202 -0.00210669
0.00134121 0.02975142 0.00392909
-0.00245173 0.04289787 -0.00172239
-0.00387260 0.02678507 0.00253429
-0.00239361 0.01358370 -0.00174700
-0.00231896 0.06266131 -0.00082546
0.00317265 -0.03404855 -0.00351305
-0.00387955 0.00881701 0.00252819
0.00474786 -0.01973972 -0.00290040
-0.00012016 0.04400533 0.00409255
-0.00266018 0.00142973 0.00342524
0.00460303 -0.00220154 0.00069393
-0.00053391 0.04128971 0.00407271
0.00142409 0.03556216 0.00391100
-0.00312340 0.01714109 0.00313438
-0.00216198 -0.00925878 -0.00009201
0.00925890 -0.02674322 -0.00246783
-0.00630399 -0.04525408 -0.00072602
-0.00316478 -0.00794143 -0.00130391
-0.00097097 -0.01238930 0.00072559
0.00453648 0.03977698 0.00178291
0.00373478 0.05128794 0.00265604
0.00370543 -0.01028735 0.00064926
0.00224415 -0.01463948 -0.00153378
0.00205795 0.03688456 0.00369389
-0.00399035 0.00815931 0.00243082
-0.00162775 -0.02841313 -0.00402788
-0.00446918 -0.03038348 -0.00389964
0.00217205 0.03908955 0.00364558
0.00002307 -0.02482061 -0.00245586
-0.00356622 0.02625359 0.00280354
-0.00371007 0.01779110 0.00267713
0.00125676 -0.04935983 0.00231007
-0.00265387 0.04687413 -0.00162475
0.00030735 0.05982094 0.00325901
-0.00384770 0.03374710 -0.00075170
0.00240648 0.06266131 0.00025034
-0.00442775 0.04768580 -0.00010939
0.00163359 -0.01597704 -0.00189217
-0.00320656 -0.02712247 -0.00246242
0.00320035 -0.04321619 -0.00059463
0.00351585 -0.01228438 0.00075370
-0.00519367 -0.02720408 -0.00246124
0.00186598 -0.03672945 -0.00142392
0.00440172 -0.00861468 0.00194634
0.00054370 0.05759474 -0.00006514
-0.00196018 0.04403837 0.00373498
0.00273014 0.00848185 0.00338177
0.00083875 0.04736134 -0.00223433
-0.00460225 0.01836986 0.00085362
0.00055262 -0.00621022 0.00405839
-0.00229713 0.02390558 -0.00178785
0.00109205 0.01536453 0.00398721
0.00460303 0.00076236 0.00088727
0.00138818 -0.00668604 0.00391011
-0.00323576 0.02828448 0.00306383
-0.00343093 0.00333226 0.00292244
-0.00103198 -0.00806797 0.00399682
0.00461053 0.01275983 0.00055228
-0.00866232 -0.04029185 -0.00080389
-0.00098693 0.02192233 -0.00220927
-0.00456468 0.03070615 0.00005666
0.00427308 0.03756574 0.00210232
-0.00312135 0.00471345 -0.00133118
-0.00402057 0.04919286 -0.00059981
-0.00686438 -0.02866862 -0.00240290
0.00322770 0.04526310 0.00306934
0.00237547 0.00547080 -0.00175497
-0.00050954 -0.03621821 -0.00267524
-0.00890539 -0.03694161 -0.00267321
0.00363206 0.02397290 -0.00094184
0.00074777 0.06022800 0.00405141
0.00157659 0.04224736 -0.00206468
0.00461892 0.01216929 0.00082766
-0.00263887 0.04792006 -0.00163417
0.00502367 -0.02546699 -0.00246704
0.00219368 0.03517065 0.00363642
-0.00061538 -0.02979719 -0.00233163
0.00460303 0.03459993 0.00110748
0.00046179 0.05693452 -0.00227797
-0.00389868 -0.01219948 -0.00021811
-0.00260366 0.00883253 0.00346074
0.00284039 -0.00727332 -0.00150807
0.00205286 -0.00854771 -0.00189156
0.00030504 -0.00529572 0.00407844
-0.00731847 -0.03433616 -0.00184969
0.00320035 -0.05395994 0.00379120
-0.00860849 -0.02861156 -0.00241318
-0.00092114 -0.03305139 -0.00202634
0.00023865 0.03507934 -0.00227862
-0.00220504 -0.03289842 -0.00204576
-0.00187446 -0.02016530 -0.00135800
0.00147897 0.01654488 -0.00208590
0.00755638 -0.02252449 -0.00364657
0.00309342 -0.01064530 -0.00046353
0.00235183 0.03029980 -0.00176498
0.00713855 -0.02608428 -0.00407261
-0.00699266 -0.03329883 -0.00360580
0.00314216 -0.01865789 -0.00261052
0.00344551 0.02294952 -0.00110577
0.00126111 0.01895310 0.00394651
0.00102968 0.00774025 -0.00219317
0.00317181 0.03840713 -0.00129995
0.00459804 0.04385114 0.00009618
-0.00534361 -0.02684056 -0.00406894
0.00418319 -0.02036678 -0.00141198
-0.00139622 -0.03419969 -0.00187815
-0.00212180 0.02641587 0.00366655
0.00109827 -0.04706324 0.00002291
0.00241547 0.03624868 -0.00173803
0.00104725 -0.00672091 -0.00218877
-0.00159112 0.02397880 0.00386494
-0.00319958 -0.05326536 0.00297575
-0.00364190 0.00721959 0.00273703
0.00206899 -0.02262347 -0.00201667
-0.00016029 0.01570765 0.00408934
-0.00260607 0.06073514 -0.00165477
0.00332132 0.03110511 0.00301056
0.00713011 -0.02369327 -0.00395974
-0.00116468 -0.04785283 0.00146286
0.00045291 -0.02467971 -0.00245199
-0.00222907 -0.05540420 0.00414502
-0.00460225 0.05574897 0.00088216
-0.00532416 -0.04144706 -0.00193671
-0.00226653 0.05225226 0.00360527
-0.00073540 -0.00952859 0.00149209
-0.00577400 -0.01891041 -0.00252396
0.00773629 -0.04046215 -0.00056360
0.00320633 0.04226705 0.00308277
-0.00177719 0.01763570 -0.00200798
-0.00362390 0.06266133 0.00060534
0.00257581 0.01075826 0.00347460
-0.00405975 0.05449598 0.00236012
-0.00417373 0.03398107 -0.00041745
-0.00391796 -0.02060127 -0.00147481
-0.00305726 0.00232803 0.00317591
-0.00070514 0.04805710 0.00405661
0.00176606 0.04813445 -0.00201269
0.00728290 -0.02922527 -0.00238414
0.00460318 0.01327759 0.00093373
-0.00460250 -0.02140674 -0.00169064
-0.00045687 -0.01775710 -0.00236915
-0.00033636 -0.00874427 0.00267542
-0.00511424 -0.02804946 -0.00404017
0.00545451 -0.04623484 -0.00017568
-0.00432348 0.05695788 -0.00023585
-0.00687133 -0.02779956 -0.00244614
0.00306245 0.05195583 0.00317312
0.00460303 0.02280817 0.00067799
-0.00049732 -0.02086772 -0.00154622
0.00423401 0.03581625 0.00214969
0.00073983 0.02253917 0.00405068
-0.00319642 -0.00218206 0.00308853
0.00370092 0.01778964 -0.00088132
0.00526421 -0.02567640 -0.00407005
0.00198652 -0.00874426 0.00252355
0.00191290 -0.03681312 -0.00304074
-0.00148166 -0.03716097 -0.00296833
-0.00098303 -0.00175895 0.00400885
-0.00850645 -0.04283494 -0.00113756
0.00913922 -0.02599728 -0.00398380
-0.00176158 -0.02563792 -0.00406727
0.00020251 0.02247493 0.00409196
-0.00241998 -0.05514770 0.00398955
-0.00137378 0.03814800 0.00392460
-0.00094636 -0.04396191 0.00016001
-0.00290787 0.05581065 0.00326974
0.00037834 -0.00874427 -0.00123650
0.00449578 -0.01587477 -0.00041246
-0.00099908 0.04901143 0.00400522
0.00575898 -0.02319480 -0.00216976
-0.00757763 -0.02351471 -0.00225547
-0.00145232 0.00516557 -0.00209215
-0.00205996 0.00270024 0.00369272
0.00169397 0.03217996 0.00383692
-0.00319958 -0.04090939 -0.00068695
0.00460303 0.05209269 0.00163702
-0.00069477 0.03446249 -0.00225257
0.00111586 -0.02074706 -0.00151388
0.00158685 -0.04602415 -0.00042118
0.00432651 0.03296318 0.00203753
-0.00611693 -0.04914597 0.00261365
0.00460303 0.00004917 0.00050381
-0.00517732 -0.03577308 -0.00324249
0.00250759 0.06266132 0.00119423
0.00346932 0.01088406 -0.00108485
0.00320035 -0.04643201 0.00062574
-0.00365549 -0.00955724 -0.00007347
0.00014716 0.01898906 0.00409574
-0.00367408 -0.00995923 0.00096717
0.00460303 0.01956920 0.00152985
-0.00090103 0.01259794 -0.00222486
0.00372875 -0.02279434 -0.00206246
0.00783932 -0.03465460 -0.00340889
0.00059403 0.05294179 -0.00226546
-0.00237597 0.00950540 0.00355892
-0.00431147 -0.02733427 -0.00406059
-0.00141173 0.04179159 0.00391419
-0.00111786 0.02075117 0.00397594
0.00714431 -0.03471242 -0.00340575
-0.00039760 0.00308969 0.00407029
-0.00263712 -0.00574537 -0.00163527
0.00248508 -0.04288995 -0.00148875
0.00460303 -0.00347515 0.00153300
-0.00244963 -0.03068618 -0.00226784
-0.00126620 0.04246268 -0.00214546
-0.00823806 -0.04618789 0.00135166
-0.00428599 0.05634725 -0.00028132
-0.00360661 -0.01573684 -0.00182784
-0.00341853 0.00061538 0.00293333
0.00436832 0.03838502 0.00198683
0.00307829 0.03571742 0.00316317
-0.00130487 -0.00874429 0.00003844
-0.00554803 -0.03701635 -0.00137622
-0.00554278 -0.04754272 0.00113278
0.00630397 -0.03441928 -0.00184394
-0.00005195 0.01438393 -0.00229680
-0.00460225 0.05155837 0.00136240
-0.00034600 -0.00377919 -0.00227088
0.00029067 0.04245848 -0.00227988
-0.00202965 0.00747171 -0.00190108
-0.00460225 0.04722293 0.00063376
0.00564798 -0.04404245 0.00054935
0.00402110 0.05079751 0.00240441
-0.00415599 0.00137733 0.00224342
0.00460303 0.02159946 0.00086134
0.00225159 0.00436000 0.00361189
-0.00819587 -0.03797052 -0.00281229
-0.00108070 0.03906237 0.00398515
0.00256670 -0.00044247 -0.00167401
-0.00116167 0.05894473 0.00267302
0.00163071 -0.05489136 0.00493774
-0.00562231 -0.04889325 0.00180733
0.00460303 0.00454931 0.00047458
-0.00819594 -0.02355168 -0.00321143
-0.00148754 0.05045694 -0.00208892
0.00034224 -0.03199082 -0.00376180
-0.00705336 -0.05313888 0.00469253
-0.00360738 0.00690721 0.00276737
-0.00292630 -0.02854975 -0.00402252
0.00820161 -0.02524084 -0.00246524
0.00130291 0.02096606 -0.00212628
0.00062490 0.03294592 -0.00225853
-0.00057020 0.02520945 -0.00225922
0.00281624 0.06182668 0.00332773
0.00137903 0.05939237 0.00392336
-0.00361135 0.04521602 0.00276388
0.00240775 -0.04051908 -0.00220672
-0.00286181 0.01724501 -0.00149417
0.00390845 -0.00404503 -0.00069893
0.00304565 -0.01208844 -0.00085023
-0.00117862 0.05845497 0.00395527
0.00256096 0.02286858 0.00348090
-0.00174531 0.03987147 0.00382262
-0.00149297 -0.00398787 -0.00208029
0.00089749 -0.03085228 -0.00225659
0.00268750 -0.02687883 -0.00246073
0.00046209 -0.02915193 -0.00399116
0.00259185 -0.04446355 0.00068990
-0.00205912 0.01890609 -0.00188862
0.00610234 -0.05366525 0.00314568
0.00105044 0.03631021 0.00400170
0.00812072 -0.04817341 0.00042207
0.00420607 0.04991081 0.00218357
0.00305243 -0.00214069 0.00317939
-0.00796222 -0.05030094 0.00257849
0.00367155 0.06266133 0.00181287
0.00264385 0.03722867 0.00343597
-0.00115826 0.03976227 -0.00217136
-0.00072662 -0.02784450 -0.00244559
-0.00526960 -0.02800966 -0.00243560
-0.00460225 0.02830011 0.00092117
-0.00460225 0.02028570 0.00077429
0.00021784 0.04877612 -0.00228651
-0.00740741 -0.04955912 0.00284178
-0.00322858 0.04241545 -0.00126385
0.00111930 -0.04280268 0.00013329
0.00588026 -0.05370526 0.00329062
-0.00209714 -0.03196385 -0.00216137
0.00075472 0.00427090 -0.00223936
-0.00361191 0.06058488 0.00276339
0.00224265 0.05895188 -0.00181123
-0.00236618 -0.00874426 0.00183823
0.00197575 -0.02464523 -0.00405165
-0.00895121 -0.03617769 -0.00241427
-0.00601294 -0.04862889 0.00062155
-0.00243833 -0.01757093 -0.00231927
-0.00408043 0.04476138 0.00233505
-0.00713039 -0.02941919 -0.00396948
-0.00196121 -0.02991334 -0.00232837
0.00011974 0.02550635 0.00409918
0.00368847 0.04349149 -0.00089228
0.00320035 -0.03823972 -0.00117647
-0.00455253 0.03672488 0.00176251
0.00138886 0.00755548 0.00391286
-0.00242536 0.03451249 0.00353802
-0.00296174 0.02856753 0.00323589
0.00270719 0.01279878 -0.00159172
0.00025037 0.03868347 -0.00227768
0.00416136 -0.02447168 -0.00244628
0.00046588 0.05976496 0.00068066
-0.00346047 0.00980629 -0.00109199
0.00168344 0.02168403 -0.00203534
-0.00038438 -0.02383028 -0.00399645
-0.00580982 -0.04585300 0.00122486
0.00301203 0.01075525 -0.00140029
-0.00419027 -0.00737484 -0.00039736
0.00116433 0.00207398 0.00396677
0.00032661 0.05981414 0.00270822
-0.00118558 -0.04806320 0.00196475
0.00588260 -0.03184290 -0.00217334
0.00511285 -0.03997249 -0.00189378
0.00101737 0.01283633 0.00400500
-0.00285209 -0.00515855 -0.00150027
0.00739805 -0.04740491 0.00012208
-0.00469129 -0.02812065 -0.00242899
0.00432958 -0.02330971 -0.00220055
-0.00419807 0.02375790 0.00219238
0.00619203 -0.02231812 -0.00193484
0.00381075 0.02618425 -0.00078481
-0.00303933 0.01273177 0.00318717
0.00285250 -0.04839083 0.00053957
-0.00319958 -0.05340632 0.00414636
0.00382880 0.02149862 -0.00076895
0.00397945 0.02146706 -0.00063655
0.00625006 -0.04325217 -0.00139623
-0.00561073 -0.02098496 -0.00157762
0.00137356 0.00372766 0.00391582
0.00205606 -0.00561493 -0.00189021
0.00187344 0.05052359 -0.00196758
-0.00716966 -0.05360875 0.00495723
0.00159554 -0.00757522 0.00385910
0.00776359 -0.05332954 0.00353334
-0.00777044 -0.05321571 0.00343810
-0.00027456 -0.03197456 -0.00215936
-0.00314509 -0.05154789 0.00204492
0.00383913 -0.02597227 -0.00247103
-0.00305477 0.02818328 -0.00137299
0.00008045 -0.00239808 0.00409702
0.00426115 -0.02247268 -0.00197627
-0.00319958 -0.04498613 0.00010352
0.00655017 -0.04745970 0.00014278
0.00864067 -0.04070813 -0.00103121
0.00212535 0.01702664 -0.00186087
0.00065241 0.04709378 0.00406297
-0.00233213 0.06266132 0.00286798
0.00148491 0.04823295 0.00389430
0.00077662 -0.02394408 -0.00237053
-0.00261156 0.01958204 -0.00165132
-0.00816288 -0.04767592 0.00092109
-0.00223570 0.00154553 -0.00181385
-0.00460225 0.04541539 0.00154519
-0.00003003 0.05746388 -0.00119554
-0.00314481 -0.02638167 -0.00407147
-0.00076083 0.02956630 -0.00224433
0.00133761 -0.05094624 0.00256387
0.00367291 0.04581471 0.00271042
0.00265827 0.00664383 -0.00162244
0.00460303 0.02041153 0.00112171
