# .PCD v0.7 - Point Cloud Data file format
VERSION 0.7
FIELDS x y z
SIZE 4 4 4
TYPE F F F
COUNT 1 1 1
WIDTH 1000
HEIGHT 1
VIEWPOINT 0 0 0 1 0 0 0
POINTS 1000
DATA ascii
-0.02273734 0.00090585 -0.00337245
0.04469784 -0.00321668 0.00120817
0.05690884 -0.00280126 -0.00075495
-0.02736391 0.01136211 -0.00320907
-0.01078747 -0.00237874 -0.00147895
-0.03130982 -0.00292295 -0.00541458
0.00845798 -0.00200269 0.00408202
-0.01257744 -0.00082215 -0.00289529
-0.02606925 -0.01256418 -0.00148659
-0.03785650 -0.00607673 -0.00028949
0.06228803 0.00178324 0.00331554
0.02622156 -0.00135029 0.00414458
0.02391870 -0.00203413 -0.00099228
-0.02006560 -0.00285953 -0.00523086
0.00958971 0.00321597 0.00091704
-0.01616770 0.00112381 -0.00180140
-0.01872308 0.00308698 -0.00488569
-0.03874501 0.01128663 0.00175611
-0.03067135 -0.00633931 -0.00482064
0.04662603 0.00321597 0.00043640
0.03651815 -0.00174423 0.00377845
0.02407736 -0.00187650 0.00390157
-0.05131934 -0.00201621 0.00623592
-0.05070185 -0.00269289 0.00554236
-0.03175859 -0.00696753 -0.00447344
-0.02303418 -0.00441275 -0.00545776
0.04489994 0.00212853 0.00337076
0.00775740 0.00319469 0.00249346
-0.03703498 0.00110650 -0.00153598
0.03923448 -0.00168574 -0.00146438
-0.03071703 -0.01337231 -0.00154524
-0.00612417 -0.00266306 0.00095639
-0.04111932 0.01149315 0.00106407
0.06539845 0.00129093 0.00351340
0.04957823 0.00091946 -0.00196007
-0.04241859 -0.00350295 0.00151552
-0.02964944 0.00319344 -0.00557102
0.04613034 -0.00189267 0.00352059
-0.02651314 -0.00400152 -0.00564521
-0.04296705 -0.00465348 0.00214758
0.02580642 -0.00092970 0.00429807
-0.04051393 0.00784513 -0.00114812
-0.04674280 0.00237188 0.00155428
-0.03060320 0.00409335 -0.00532391
-0.03487649 -0.01084570 -0.00207790
-0.04168039 0.00046209 -0.00203063
0.01786676 0.00123956 -0.00132075
-0.05125931 0.00102451 0.00608912
-0.03734375 -0.00289930 -0.00124026
-0.00779009 -0.00178920 0.00219187
-0.02261611 0.00989774 -0.00381274
-0.04092424 0.01023907 0.00014144
-0.02445471 -0.00957079 -0.00406380
-0.00125976 0.00225728 -0.00038502
-0.02607487 0.00089888 -0.00357578
-0.00967249 -0.00177609 -0.00132119
0.03989513 -0.00280478 0.00274466
0.05046912 -0.00101286 0.00386427
-0.01395088 0.00030708 -0.00091384
0.06115710 0.00030239 -0.00026002
-0.02505977 0.00530883 -0.00295600
0.02911899 -0.00244980 0.00335958
0.03886374 0.00312162 0.00214933
-0.04702247 0.00333779 0.00521169
-0.04410291 0.00815358 0.00112521
-0.05110473 0.00192122 0.00771018
-0.03277913 -0.00334550 -0.00504781
0.05160547 -0.00308193 -0.00015401
-0.04507274 -0.00947232 0.00284148
-0.02760781 0.00040810 -0.00356295
-0.01047933 -0.00189760 0.00097390
-0.00524411 -0.00017183 0.00280167
-0.00962569 0.00032663 -0.00135447
0.03680740 -0.00091525 -0.00174864
-0.02318066 0.00880582 -0.00171895
0.06598984 0.00321597 0.00021179
-0.01814253 -0.00514766 -0.00443860
0.03328923 0.00313109 0.00026923
-0.03795646 -0.00378974 -0.00345080
-0.00771631 0.00247738 0.00137605
-0.02932349 0.01273580 -0.00084907
-0.04200606 -0.00491743 0.00157269
-0.02406318 -0.01230079 -0.00200038
-0.01826475 0.00690671 -0.00154123
0.01528281 0.00123018 0.00437600
-0.03502184 -0.00001509 -0.00229108
-0.00237904 -0.00182458 0.00027540
0.02918741 -0.00306062 0.00247372
-0.04791842 -0.00491436 0.00652506
0.04728571 -0.00108454 -0.00186950
0.06387408 0.00032632 0.00377786
-0.05108207 0.00076750 0.00585324
-0.04138197 0.00423063 -0.00176894
-0.02422259 -0.00126846 -0.00586337
-0.03281333 -0.01257621 -0.00167586
0.03717466 -0.00022149 -0.00186559
0.05782710 -0.00321668 0.00143921
0.00000897 -0.00321668 0.00239613
-0.04756510 -0.00352880 0.00249639
-0.00894555 0.00244066 0.00020822
0.06075559 0.00190904 -0.00169141
0.03976424 -0.00321668 0.00050795
-0.03406747 0.00533845 -0.00185326
-0.00833161 0.00119999 -0.00066947
0.04612561 0.00198771 0.00346739
-0.01809433 -0.00331692 -0.00223862
0.01141182 0.00315543 0.00252793
0.03359182 -0.00148146 -0.00148753
0.01133069 0.00065663 -0.00138073
0.00104642 -0.00269386 0.00003303
-0.03532586 0.00961739 -0.00256517
0.04429074 0.00197639 0.00350572
0.05273941 -0.00321668 0.00024021
-0.02107789 -0.00639597 -0.00475725
0.04069466 0.00164523 -0.00152273
0.06617993 -0.00024592 0.00373776
0.05355231 0.00309221 0.00197438
-0.01928315 0.00363243 -0.00249661
0.00060509 -0.00082654 0.00474756
-0.01683949 0.00261193 -0.00192130
-0.01419978 0.00019844 -0.00102850
-0.02993523 -0.00449519 -0.00290353
0.03050455 -0.00290931 0.00272580
-0.02385382 -0.00214008 -0.00580267
-0.04247414 0.00859461 0.00026840
0.00508663 -0.00168873 0.00434249
-0.01841329 -0.00009689 -0.00500531
-0.02464019 0.00886252 -0.00433942
-0.02624771 0.00909837 -0.00426524
0.00349659 0.00063284 -0.00125302
-0.03363437 -0.01276887 -0.00133901
0.06121358 -0.00188974 0.00326910
-0.02766440 0.00681215 -0.00250342
0.01857372 0.00270676 -0.00024017
0.04077191 -0.00206980 0.00349559
0.03861210 -0.00182086 -0.00137545
0.06407999 -0.00166564 -0.00189344
-0.01183664 0.00163811 -0.00249799
-0.04061401 0.00548058 0.00091095
0.02049602 0.00078111 0.00442285
0.02339876 -0.00002832 -0.00163836
-0.05108030 -0.00323091 0.00714402
-0.04131081 -0.00276123 0.00070554
-0.00606768 0.00253762 0.00207433
0.00149046 -0.00224848 -0.00043701
-0.03789350 0.00341819 -0.00092988
0.05299381 -0.00321668 0.00149134
0.05210920 0.00162764 0.00357690
0.06248367 -0.00185843 0.00326810
-0.02864321 0.00058347 -0.00349317
0.00833305 0.00128079 -0.00114211
0.04234632 0.00247562 -0.00091937
-0.02410493 0.01130514 -0.00056731
-0.03383205 -0.00679746 -0.00147791
-0.03506851 0.00687092 -0.00107920
-0.03727098 0.00171370 -0.00141206
0.01295926 -0.00028332 -0.00144976
-0.04944194 0.00530359 0.00651118
0.03394793 -0.00024117 -0.00180992
0.01603992 0.00247719 -0.00047552
0.01605812 0.00321597 0.00105056
-0.04076886 -0.00798900 -0.00096078
-0.02790740 0.00608698 -0.00516766
0.02175886 0.00314608 0.00237694
-0.02481004 0.00469242 -0.00308728
0.01703177 0.00111420 0.00439105
0.05530602 0.00142305 -0.00186878
-0.03044259 -0.00026770 -0.00570257
-0.02772737 -0.01312391 -0.00217833
-0.03928955 0.01177163 0.00097694
-0.03724562 0.01098441 -0.00116865
-0.04617460 -0.00016488 0.00409346
0.04545389 0.00285092 0.00256800
-0.00706538 0.00034712 -0.00018226
-0.04471461 0.00033650 -0.00012043
-0.03442523 0.00419004 -0.00454731
-0.04670078 -0.00058203 0.00459720
-0.02141461 0.00629156 -0.00236964
0.03732753 -0.00198904 -0.00125509
-0.00897853 0.00142340 0.00168921
-0.03360232 0.00081314 -0.00511551
-0.01134250 -0.00070023 -0.00226101
-0.02377799 0.01032987 -0.00368343
-0.04698726 0.00296458 0.00511593
-0.04108579 0.00009119 -0.00236643
-0.02236396 0.01099666 -0.00109963
-0.03385795 -0.01051118 -0.00255128
0.00864249 -0.00185805 -0.00085035
-0.02816033 -0.01010962 -0.00108843
-0.02054780 0.00071659 -0.00302602
0.05746011 0.00106355 -0.00205055
-0.04195577 0.00946505 0.00338498
-0.04201214 0.00873886 0.00004410
0.03782564 0.00280076 -0.00044222
-0.01420277 -0.00141891 -0.00099261
-0.03426297 -0.00175896 -0.00491011
-0.02925231 0.01017177 -0.00093540
0.04218106 -0.00090143 0.00403530
-0.04131920 -0.01112254 0.00083094
-0.02359084 -0.00931048 -0.00412969
0.03499054 -0.00242219 0.00328558
-0.04448708 -0.00406595 0.00313479
-0.01525775 0.00294804 -0.00388246
-0.00673965 -0.00193543 0.00001987
0.06145549 0.00317602 -0.00009099
-0.00517588 -0.00267257 0.00149189
0.05510601 0.00306570 -0.00026167
-0.04159883 -0.01016009 0.00286939
-0.03637635 0.00856202 -0.00267236
-0.04805192 -0.00432695 0.00652718
-0.04551824 -0.00763992 0.00520145
0.02328735 -0.00238546 0.00351495
0.01584633 0.00284719 0.00000547
0.04191844 0.00224880 0.00332073
-0.02105710 -0.01078174 -0.00209824
-0.04265486 0.00422849 -0.00101720
-0.01959226 0.00691409 -0.00438460
-0.03553774 -0.00841217 -0.00030508
-0.02056662 0.01055391 -0.00231967
-0.03570269 -0.00302290 -0.00436175
-0.03535860 0.00743276 -0.00077340
0.02863465 0.00315061 0.00225038
-0.03332786 -0.00560712 -0.00198128
0.05498594 -0.00321668 0.00158771
-0.04547004 -0.00489866 0.00414217
0.02719040 0.00151937 0.00405838
-0.02473739 0.01185638 -0.00090099
-0.04727973 0.00524550 0.00262016
0.03563646 -0.00279045 0.00284041
-0.01547617 -0.00165500 -0.00151785
0.06607700 0.00124688 -0.00023724
0.03662821 0.00195438 0.00364723
0.06342326 -0.00053929 0.00189213
0.03788147 -0.00160400 -0.00148911
0.03368249 -0.00252730 -0.00070733
-0.03616034 -0.00160727 -0.00435937
0.03147595 -0.00081870 0.00423631
-0.02510368 -0.01274977 -0.00221524
-0.03543852 0.01017980 0.00055479
0.02965322 0.00218443 -0.00096935
-0.01347662 0.00271184 -0.00169525
-0.03125992 0.00842867 -0.00404609
-0.01875065 0.00824985 -0.00379904
-0.03144757 -0.01008400 -0.00061733
-0.04318920 0.00845170 0.00371763
0.06149707 0.00081528 0.00321586
0.04073465 -0.00163839 -0.00151708
-0.04779801 -0.00148440 0.00574113
-0.05035675 -0.00500133 0.00627807
-0.02785337 0.00734395 -0.00231474
0.06498423 -0.00321668 0.00134491
-0.00492693 -0.00246088 0.00307148
-0.00037945 -0.00210377 -0.00052608
0.06013914 -0.00321668 0.00132953
0.02186659 0.00321597 0.00079210
-0.03184540 -0.00287206 -0.00287438
0.05561191 -0.00321668 0.00157455
-0.05089627 -0.00342616 0.00716016
-0.02003539 0.00964691 -0.00357702
0.05628723 -0.00125867 0.00368259
-0.00119319 0.00058535 0.00392509
-0.03794951 -0.00835517 0.00063542
0.00433464 -0.00043206 -0.00129826
0.00166760 0.00141379 -0.00097058
-0.01590572 -0.00303340 -0.00155886
0.02013657 0.00207678 -0.00090009
0.06629439 0.00291799 0.00210995
0.06628582 -0.00193067 0.00040544
-0.03833113 0.00125162 -0.00098744
0.05010390 -0.00149734 0.00367840
-0.04831128 -0.00010058 0.00624346
0.05201245 -0.00302767 -0.00029327
0.01872839 0.00269516 0.00324619
0.02315799 0.00309423 0.00248003
0.03023357 0.00294530 -0.00007049
0.05332853 0.00185591 0.00342385
0.06028345 0.00321597 0.00049023
-0.04000516 -0.00455288 0.00031344
0.06118405 0.00129580 -0.00202514
0.02509881 -0.00170629 0.00399491
-0.04855021 -0.00103025 0.00307784
-0.05011294 0.00477691 0.00664693
0.01094464 -0.00295867 0.00297099
-0.04280073 0.00384300 -0.00099426
-0.03997959 -0.01099721 0.00199217
-0.02284838 -0.00240007 -0.00571257
0.04100618 0.00321597 0.00044878
0.05566630 0.00301918 -0.00037296
0.05595671 -0.00321668 0.00043966
0.00368503 0.00145610 -0.00098554
-0.04764460 -0.00748130 0.00455598
-0.01980603 0.00374960 -0.00260180
0.01375728 0.00099036 0.00449228
0.05059377 0.00045681 -0.00206886
0.06258788 -0.00116065 -0.00200090
-0.02586019 -0.01197293 -0.00059704
-0.02283792 -0.00779068 -0.00208097
-0.03005883 -0.00986664 -0.00364085
-0.05138123 -0.00338428 0.00685678
-0.02051124 0.00625668 -0.00470521
-0.03949536 -0.00485860 0.00012446
-0.03531396 -0.01293721 -0.00047184
-0.05160774 -0.00105173 0.00652273
0.03809277 0.00320437 0.00037278
-0.01751267 -0.00128987 -0.00224653
-0.03270980 -0.00692274 -0.00171987
0.03844640 0.00321597 0.00042550
-0.02008704 0.00627039 -0.00464013
0.03106067 0.00000302 0.00433848
0.01128375 0.00218275 0.00389035
-0.03743942 -0.01259561 -0.00002277
-0.02038833 -0.00759557 -0.00432736
0.02935759 -0.00188712 -0.00118149
-0.02458402 -0.00947230 -0.00411558
0.02606087 0.00290200 -0.00007355
-0.00346685 -0.00168981 0.00318204
-0.02295254 0.01204881 -0.00283735
0.05218157 -0.00310298 -0.00011231
0.01868426 0.00164946 -0.00115103
-0.03453315 0.00030638 -0.00241925
0.04902776 -0.00265727 0.00277896
0.01991245 0.00242511 -0.00059102
-0.00195145 -0.00174542 0.00332419
0.04067936 0.00319371 0.00030251
-0.02849579 -0.00185933 -0.00584714
-0.01622856 0.00210748 -0.00427755
0.00012813 -0.00321668 0.00154758
0.05157670 -0.00318256 0.00179115
0.01998099 0.00278858 -0.00016301
-0.03359881 -0.00270485 -0.00250365
0.02199087 -0.00119769 0.00428394
-0.03685207 0.00553241 -0.00086300
-0.04541510 0.00009151 0.00342308
0.02610377 -0.00040963 0.00439345
-0.03623835 -0.00530610 -0.00116741
-0.02493805 -0.00015491 -0.00357285
0.00403102 0.00261122 -0.00011152
-0.03831733 0.00585315 -0.00014995
0.05598342 0.00148611 -0.00185162
-0.01824630 0.00735738 -0.00140032
-0.03959841 0.00719020 0.00094215
-0.03882582 0.01062070 -0.00070665
-0.02989117 0.01166744 0.00003555
-0.01784206 0.00758156 -0.00192917
-0.03213588 0.01278888 -0.00045638
0.06558637 -0.00256192 0.00261620
-0.00265612 0.00188793 -0.00063977
-0.02390014 -0.00648330 -0.00260095
0.03936856 -0.00312959 0.00016790
-0.03877693 -0.00890327 0.00128914
-0.01702492 0.00686260 -0.00376563
0.04633932 -0.00033898 -0.00201403
0.03389803 0.00097056 0.00415952
-0.03544529 -0.00154206 -0.00459391
0.02009777 -0.00238391 0.00356992
-0.03439047 0.00998645 0.00009368
-0.00376267 0.00052472 0.00304767
-0.04745798 0.00255131 0.00553277
0.01067444 -0.00017978 0.00467843
-0.01083993 0.00058497 0.00072330
-0.03703182 0.01119258 0.00178898
-0.03202585 0.01038342 -0.00304006
-0.03578806 0.00918311 0.00013837
0.03152255 -0.00226130 -0.00093090
0.03437645 0.00270990 0.00296631
-0.03478968 -0.00643619 -0.00133441
-0.03839214 0.00749814 0.00046382
0.00605707 0.00220774 0.00395735
-0.02457753 -0.00863935 -0.00186965
0.03551124 0.00041761 -0.00181432
0.03142169 -0.00314712 0.00221879
0.03952104 -0.00064156 -0.00184738
0.03061464 0.00160388 0.00395178
-0.02991417 -0.00530371 -0.00271666
-0.03726866 -0.00480915 -0.00090815
0.04407675 0.00321597 0.00171987
-0.02556203 0.00590164 -0.00281667
-0.04477641 -0.00571254 0.00075618
-0.03239851 0.00572908 -0.00466012
0.02673075 0.00301930 0.00260298
-0.02096896 -0.00481986 -0.00510293
-0.01379498 -0.00033662 -0.00084317
-0.03539734 -0.01175572 0.00126439
0.01960694 0.00270011 0.00322572
0.04474716 -0.00100284 0.00396142
-0.03090768 0.00273995 -0.00549161
0.01521755 -0.00313462 0.00058590
-0.03482485 0.00171478 -0.00227354
-0.04132782 0.01141900 0.00112755
-0.04349782 0.00622053 0.00299517
0.05654086 0.00321597 0.00064461
0.02772212 0.00240101 -0.00074372
-0.02489451 -0.01178452 -0.00305807
-0.04385158 -0.00952713 0.00316110
-0.02804920 0.01108524 -0.00056724
-0.03231798 -0.01074101 -0.00006189
0.04257300 0.00042249 -0.00193593
0.03462290 0.00196390 -0.00121675
-0.04388477 -0.00100688 0.00224720
-0.02634259 -0.00796233 -0.00216953
-0.01454633 -0.00279250 -0.00104578
0.05647318 0.00236978 -0.00125458
-0.03897695 -0.00787311 0.00089555
-0.02911507 0.00513774 -0.00285585
0.01904276 -0.00313134 0.00051365
0.05884270 -0.00279583 -0.00079618
0.01315615 -0.00075534 -0.00138011
-0.03720090 0.00386589 -0.00371861
0.04921805 0.00170680 -0.00162887
-0.04542694 0.00552493 0.00431023
-0.04672542 0.00811638 0.00409362
-0.04005564 -0.00920800 -0.00082879
0.03898910 -0.00318169 0.00200480
0.01802273 0.00285962 0.00301481
0.04539044 0.00121864 -0.00179258
0.01642313 0.00135111 0.00431054
0.04316937 -0.00010869 0.00413975
0.06360232 -0.00105524 -0.00215838
-0.04952136 0.00101630 0.00410786
-0.03434324 -0.01229543 0.00044334
-0.03790816 -0.00688678 -0.00270204
-0.03803139 -0.00498948 -0.00319552
-0.00289402 -0.00218565 0.00088316
0.05578319 0.00252164 -0.00108939
0.02438691 -0.00212875 -0.00092136
-0.04269790 0.00969989 0.00327118
-0.01571095 -0.00400821 -0.00391019
-0.03339171 -0.00764219 -0.00389664
-0.02879348 -0.00428685 -0.00550994
-0.03102415 0.00972665 -0.00357163
-0.04621680 0.00454023 0.00472774
0.02424751 -0.00044917 0.00442040
0.02119784 0.00187476 -0.00104908
-0.04179754 -0.00515369 -0.00133937
-0.02375714 -0.01109720 -0.00067256
-0.00528594 0.00009930 0.00278971
-0.03959940 -0.00568996 0.00042382
0.00506833 -0.00088629 -0.00121634
-0.04805080 -0.00641794 0.00580055
0.05609472 0.00099606 0.00377949
-0.03252625 0.00775682 -0.00403502
-0.03567019 0.00625436 -0.00109360
-0.02276539 -0.00583084 -0.00513308
0.02371756 -0.00294872 0.00004002
-0.03071145 -0.00617112 -0.00237384
-0.01675898 0.00242197 -0.00191211
-0.00007664 -0.00321668 0.00168514
-0.01853493 0.00609567 -0.00431975
-0.03904236 -0.00739073 -0.00206822
0.01332268 0.00321597 0.00207792
-0.04226590 -0.00155582 -0.00162527
-0.03142465 -0.00968140 -0.00350791
-0.03132430 -0.00364973 -0.00530277
0.02302666 0.00063024 -0.00158140
0.04263326 -0.00321668 0.00125171
-0.03396540 -0.00139315 -0.00500505
0.02750885 -0.00287370 0.00283628
-0.02525856 -0.00538787 -0.00538497
0.03039814 0.00301167 0.00255998
0.06246999 0.00313394 -0.00021383
0.03320835 0.00321597 0.00145416
-0.02034171 0.00775737 -0.00426884
0.03988078 -0.00020877 0.00418939
0.02114538 0.00061545 -0.00155138
-0.02571122 -0.01200240 -0.00290779
-0.02383551 0.00673338 -0.00498183
-0.03768083 0.00928807 -0.00186752
-0.02490801 0.00193132 -0.00586947
0.05023071 -0.00304838 -0.00021280
-0.02887082 -0.01076273 -0.00067698
0.02192360 -0.00271871 -0.00028903
0.02443943 -0.00029835 0.00443482
-0.02377592 0.00620656 -0.00266499
-0.02404114 -0.00116433 -0.00348933
-0.03785419 0.00766531 0.00028875
0.01257511 0.00279689 0.00320729
-0.03013854 0.01227150 -0.00239926
-0.04079176 0.00805018 -0.00092522
-0.05113898 0.00321768 0.00710980
0.02868688 -0.00313042 0.00230670
-0.04667050 0.00745979 0.00502147
0.02721909 -0.00100731 0.00425358
-0.04752040 -0.00626920 0.00625742
0.00152761 -0.00321668 0.00175007
0.04802342 -0.00141491 0.00375067
-0.01860423 -0.00643717 -0.00426090
-0.03478878 0.01195842 -0.00149725
0.02355613 -0.00255916 -0.00050046
-0.02077115 -0.00157459 -0.00545273
-0.03197024 0.00879716 -0.00114210
-0.01942330 -0.00606855 -0.00204310
0.05412792 -0.00169631 -0.00170844
0.05819040 -0.00321668 0.00083055
-0.03923364 0.00734030 -0.00199629
0.04550308 -0.00193981 0.00350052
-0.01998259 -0.00492557 -0.00244053
-0.04271108 -0.00256219 -0.00126787
-0.01190432 -0.00244378 -0.00173558
0.02488091 0.00189398 0.00387965
0.06173841 -0.00105407 -0.00085428
-0.02403423 0.00430526 -0.00552754
-0.02344841 0.01004040 -0.00379593
0.02028820 -0.00075945 0.00443830
-0.00498251 -0.00152650 0.00049427
-0.02278267 0.00844318 -0.00182757
-0.04106855 0.00539746 0.00114065
-0.04186170 0.00416047 0.00131128
-0.00406115 -0.00068964 0.00060140
-0.00403583 -0.00004510 0.00299031
0.05678689 -0.00188115 0.00334905
-0.04601402 0.00672774 0.00525558
-0.04436781 0.00371556 0.00296520
0.06245828 -0.00119231 -0.00000469
0.06269781 -0.00249675 0.00274360
-0.03355453 -0.01095313 0.00039621
0.00145823 -0.00321668 0.00251969
-0.04928438 0.00122000 0.00387003
0.01469151 -0.00321668 0.00130298
-0.03024545 0.01103260 -0.00306092
0.01006787 -0.00321668 0.00093179
-0.03952784 0.00591337 0.00045472
-0.04741372 -0.00544585 0.00617411
-0.01837284 0.00641064 -0.00171077
-0.02160048 -0.00101979 -0.00320693
-0.04889251 -0.00447517 0.00392866
0.05078538 0.00175315 -0.00162512
-0.03071885 0.00863734 -0.00406627
-0.03878415 0.01228484 0.00021868
0.05707017 0.00205329 0.00322894
-0.04791229 -0.00417869 0.00633588
-0.03988511 -0.00578288 -0.00213651
0.01411536 0.00313438 0.00059962
0.01525013 0.00317908 0.00069294
0.02180165 -0.00287320 -0.00004937
0.05835924 -0.00271643 0.00255058
0.01342377 0.00230178 0.00375530
0.06185615 0.00275034 -0.00091456
-0.01983728 0.00575554 -0.00221344
0.06718397 0.00102316 0.00358361
-0.02767410 0.00178625 -0.00349833
0.00585827 0.00303453 0.00291643
-0.04102768 0.00987273 -0.00000391
-0.03325043 -0.01077378 -0.00259582
-0.03707299 0.00130742 -0.00406145
-0.00824957 -0.00129881 0.00197559
-0.03692798 -0.01244836 0.00021044
0.01402885 0.00282933 0.00313066
-0.01731770 -0.00649031 -0.00149744
-0.03717222 0.01180646 0.00113375
0.06210540 -0.00117170 0.00263190
0.02125227 0.00284314 -0.00009219
0.04463678 0.00320613 0.00026725
-0.04255032 -0.00652547 0.00243922
0.03286338 -0.00189108 -0.00123809
-0.02029486 -0.00606118 -0.00222701
-0.01985887 -0.00462649 -0.00246859
-0.02851746 -0.01304384 -0.00152326
-0.03005691 0.00338393 -0.00549460
0.01839777 0.00065083 0.00448585
-0.00605233 0.00039487 0.00262989
0.02583693 -0.00025871 0.00441795
-0.03237030 -0.01115762 0.00021128
-0.01156558 -0.00148550 0.00035077
0.03350759 0.00149034 0.00396912
-0.00110712 -0.00321668 0.00174029
-0.04666867 -0.00756731 0.00286063
0.05977500 0.00321597 0.00090435
-0.01511327 0.00329991 -0.00139016
-0.00268317 0.00179378 0.00083773
0.05745439 -0.00154052 -0.00185479
-0.04838497 -0.00623836 0.00588340
0.06060639 0.00017843 -0.00226632
0.02379431 0.00312321 0.00239858
-0.02131894 0.00920676 -0.00134438
0.06305905 -0.00257184 0.00264664
-0.05144502 -0.00193931 0.00746453
-0.02922877 -0.00672289 -0.00240222
0.04974016 0.00202553 -0.00143072
-0.04261022 0.01013011 0.00267547
-0.03494861 -0.00901460 -0.00293954
0.00693669 0.00009225 -0.00136806
-0.04689854 -0.00678596 0.00584410
-0.04288760 -0.00583913 -0.00046917
0.05400903 -0.00321668 0.00113708
-0.02093509 0.00801283 -0.00176424
-0.05202348 0.00120678 0.00723232
0.00190328 0.00313429 0.00080456
-0.03501996 0.01188370 0.00107791
0.02464573 0.00271737 -0.00032934
0.04982160 0.00301702 0.00222062
0.01481176 -0.00282081 0.00313895
-0.04246576 0.00284733 0.00143767
-0.02280136 0.00524231 -0.00527568
0.05353393 0.00321597 0.00146419
0.01544742 -0.00230759 -0.00062229
0.05132065 0.00321597 0.00071508
-0.04040673 0.00009525 -0.00001173
-0.04625883 0.00494658 0.00486934
0.05459134 -0.00250248 0.00287285
-0.03427243 0.00930766 -0.00302583
0.02585836 0.00087279 0.00431785
-0.02891958 -0.00313678 -0.00326206
0.01381813 -0.00133986 -0.00120944
0.04706964 -0.00321668 0.00149954
0.02068197 -0.00185178 0.00397465
0.01884450 0.00181149 0.00402895
-0.00940600 0.00243814 -0.00060653
-0.03502083 -0.00892670 -0.00024141
-0.02767110 0.00844675 -0.00190702
0.04818513 0.00321597 0.00136031
-0.02641763 0.00718816 -0.00493461
-0.04575105 0.00626077 0.00483833
-0.02310132 -0.00217873 -0.00332713
0.00644129 0.00321597 0.00166561
-0.00090967 0.00225540 -0.00039257
0.00391739 0.00047109 -0.00127742
0.01103146 0.00321597 0.00212082
0.02133959 0.00223816 -0.00078175
0.03590951 -0.00321668 0.00044000
0.01003250 -0.00153093 -0.00106369
0.06495242 -0.00193938 0.00317406
-0.02486453 -0.00796264 -0.00466034
0.02847782 0.00285240 0.00285080
0.02625106 -0.00007908 -0.00168365
-0.03039489 0.00005814 -0.00331692
0.00183150 0.00083953 -0.00117130
-0.01902623 -0.00957791 -0.00342040
0.06490827 0.00153730 0.00341435
-0.01524516 -0.00280958 -0.00389279
0.03197163 -0.00217564 -0.00100975
-0.00628724 -0.00253397 0.00197608
-0.00494299 -0.00276763 0.00101635
-0.02939066 0.00721098 -0.00473986
0.05316470 -0.00297546 -0.00041164
0.05708067 -0.00087663 -0.00209992
-0.03111266 0.00086554 -0.00559372
-0.02007923 -0.00400684 -0.00508460
-0.02460201 0.00264652 -0.00339744
-0.03567136 0.01081557 0.00099922
0.00424441 0.00321597 0.00100379
-0.03405482 0.00729090 -0.00123401
-0.02517440 0.00496612 -0.00304767
0.03198988 -0.00184616 0.00378835
-0.01827682 -0.00560354 -0.00187143
0.02932241 -0.00131773 0.00410707
0.04765772 -0.00321668 0.00028573
-0.02046783 0.00576315 -0.00233165
0.05283982 0.00321597 0.00164089
-0.02675406 0.01092381 -0.00343205
0.02963140 0.00310846 0.00027379
-0.03092784 -0.00717634 -0.00199708
0.02990572 -0.00145381 -0.00143717
-0.02277655 -0.00087076 -0.00577620
0.01772822 0.00084393 0.00445635
0.02342689 -0.00255583 -0.00050212
-0.01197032 -0.00070666 0.00009744
-0.03051574 0.00358566 -0.00299431
0.05399139 -0.00102155 0.00380403
-0.04368744 0.00083242 0.00208919
-0.03245586 0.00977548 -0.00325154
-0.00755632 -0.00037740 -0.00035613
-0.03192038 0.00223583 -0.00293282
0.00386454 0.00299252 0.00303875
-0.02736204 0.00710122 -0.00241930
-0.02674481 0.00769848 -0.00224472
0.06718530 0.00162995 0.00317376
0.01963077 0.00095386 -0.00144071
-0.03174499 0.00182476 -0.00301249
0.03448436 -0.00314464 0.00028670
-0.03142089 0.00933779 -0.00101506
-0.03357962 -0.00603508 -0.00179810
-0.02547364 0.01106967 -0.00340184
-0.01012877 0.00076174 0.00112285
-0.04354486 -0.00326839 -0.00063419
0.00143564 -0.00109103 0.00466262
-0.04444355 -0.00333477 0.00293683
-0.03683745 -0.01245579 0.00020193
-0.00126295 -0.00317021 0.00270984
0.04556715 -0.00000245 0.00409507
-0.04057304 -0.01152248 0.00113053
-0.03854171 0.01026317 0.00191345
-0.03054531 -0.00577231 -0.00497718
-0.03088667 -0.00243710 -0.00553539
-0.03352373 -0.00701744 -0.00409572
0.03526132 0.00206290 -0.00116320
-0.03263745 0.00876154 -0.00363709
-0.00933952 -0.00243451 -0.00036213
0.05520154 0.00132214 0.00367595
-0.02072840 -0.00672673 -0.00213065
-0.02899454 -0.01084266 -0.00061765
0.01903475 -0.00194980 0.00393868
0.01022579 -0.00262691 -0.00019839
0.02742958 0.00123370 -0.00148405
-0.00231595 -0.00154399 -0.00084865
-0.01016726 0.00233570 -0.00157457
0.00186996 -0.00286910 0.00327479
0.02308281 0.00313439 0.00238326
-0.03601541 -0.00209427 -0.00438141
-0.04822542 0.00581439 0.00364048
-0.03965156 0.01057664 -0.00031578
-0.04324347 -0.00565898 -0.00030184
-0.01417426 -0.00347776 -0.00343225
0.03694446 0.00265997 -0.00060544
-0.02256671 -0.00597590 -0.00260726
0.06602693 0.00144117 -0.00039135
-0.02319945 -0.01219662 -0.00277501
-0.04495033 0.00931743 0.00225208
0.04316225 -0.00251380 -0.00088216
-0.04067290 -0.00847426 0.00209350
-0.01754243 0.00175901 -0.00472595
-0.02648090 0.00229859 -0.00588223
-0.03643906 -0.01025745 0.00098055
-0.01876424 -0.00684594 -0.00167657
0.06352687 -0.00013616 0.00084115
-0.02842043 0.00522073 -0.00536638
0.06389822 0.00162249 -0.00192285
-0.02113561 -0.00433808 -0.00276182
-0.03720593 -0.00966401 -0.00187114
0.04164355 -0.00275613 0.00278336
-0.03729545 -0.00995392 -0.00168546
-0.02890355 -0.01150303 -0.00022483
-0.02379394 0.00925259 -0.00415676
0.05634697 -0.00321668 0.00058553
-0.04654570 0.00716026 0.00548461
-0.02945443 0.00277050 -0.00325330
-0.02129388 -0.00616570 -0.00484158
-0.04902071 0.00426394 0.00402790
-0.01875666 0.00433241 -0.00225425
-0.04757981 0.00693073 0.00534364
-0.01936402 -0.00913342 -0.00164732
0.03493328 -0.00308100 0.00012381
-0.03087463 0.01298211 -0.00092836
0.00141766 -0.00221947 0.00403044
-0.00327051 0.00157051 0.00318616
-0.00005842 -0.00321668 0.00143766
-0.04178146 0.01082731 0.00093019
-0.03024303 0.00661873 -0.00230099
-0.03119071 -0.00155484 -0.00555320
0.05111000 0.00256636 0.00285077
0.00652810 -0.00105269 0.00458769
0.01541246 0.00233096 0.00369760
-0.01696143 0.00605367 -0.00393944
-0.01546165 0.00131113 -0.00405827
0.02719173 0.00095428 0.00427673
0.04709525 -0.00277689 -0.00062932
0.04551821 -0.00304892 -0.00013231
-0.03993499 0.00699876 -0.00176599
-0.02483585 -0.00507430 -0.00543469
-0.04171604 0.00640023 -0.00102696
-0.05115080 -0.00035165 0.00591387
-0.01879637 0.00095152 -0.00262386
0.06225495 0.00181138 -0.00178000
0.05516176 0.00261258 -0.00096887
0.03278796 0.00314105 0.00030269
-0.01873873 0.00348984 -0.00239049
0.04726350 0.00316469 0.00190306
-0.00600310 0.00268475 0.00089053
0.02637415 0.00321597 0.00075258
0.05726537 0.00113378 -0.00202620
0.06262546 0.00251675 -0.00121026
-0.02999489 -0.00718624 -0.00213761
-0.03685882 0.00022590 -0.00163997
0.04490769 -0.00217652 0.00333816
-0.04126616 0.00702209 0.00181682
-0.02077865 0.00475890 -0.00262264
-0.04213798 0.00978489 0.00329716
0.06601005 0.00171854 0.00329059
0.00071287 -0.00310244 0.00284697
-0.02610178 0.01087586 -0.00347381
0.03049926 0.00278111 -0.00035051
-0.01985187 0.00765915 -0.00422803
-0.02694881 0.01145852 -0.00317631
-0.01892867 0.00010773 -0.00512634
0.02762635 0.00105194 0.00423693
-0.03795143 0.01070613 -0.00103376
-0.04482564 -0.00638775 0.00408668
-0.01440748 -0.00054959 -0.00111069
0.06488891 -0.00273901 -0.00098742
-0.04102515 -0.00928491 0.00270833
-0.03547109 -0.01264818 -0.00004161
0.05955082 0.00318656 -0.00003250
-0.04363596 0.00162259 -0.00077333
-0.04031825 -0.00416580 -0.00230854
0.05324934 0.00110813 -0.00196612
-0.02722631 0.00450148 -0.00554925
0.02160560 0.00321597 0.00146825
-0.04153321 0.00938312 0.00001924
-0.01966889 0.00255225 -0.00271950
-0.00217045 0.00280484 0.00211555
-0.02861183 -0.00697523 -0.00237224
0.01001591 0.00321597 0.00096125
0.04575707 -0.00057720 0.00404535
-0.02045434 0.01006789 -0.00164478
-0.04339234 -0.00294857 0.00209077
-0.02972327 -0.01137444 -0.00018680
-0.03143493 -0.01020629 -0.00324890
-0.04430617 0.00389523 0.00295878
0.01202934 -0.00310472 0.00265113
-0.01783321 -0.00172956 -0.00479883
0.02892034 -0.00268362 0.00308486
-0.02915495 -0.00191936 -0.00337512
-0.02377874 0.00080445 -0.00347683
0.01306694 0.00094440 0.00451538
-0.04928264 -0.00029679 0.00739358
0.03620155 0.00151200 0.00391128
-0.04051523 -0.00582467 -0.00180841
0.02411070 0.00244380 -0.00064487
-0.02602733 0.00088809 -0.00357610
-0.02679093 -0.00014095 -0.00597768
0.05162837 -0.00174643 0.00352319
-0.04634149 0.00063435 0.00110779
-0.01044205 -0.00101515 -0.00176458
0.06275038 -0.00111784 0.00005313
-0.02123785 0.00088316 -0.00554963
0.03522558 -0.00320762 0.00200285
-0.01770512 0.00299486 -0.00215943
-0.00588368 -0.00205004 0.00279578
-0.02240953 -0.00741202 -0.00468267
-0.02188018 -0.00713692 -0.00217867
0.01607522 -0.00321668 0.00182854
0.01179071 -0.00279366 -0.00000922
-0.03798010 0.00978758 0.00137070
-0.04262012 -0.01071727 0.00182189
0.02635870 0.00321597 0.00159504
-0.02494429 0.00109641 -0.00354009
0.01911998 0.00206844 0.00385387
-0.03007603 -0.00148502 -0.00568727
-0.03975914 -0.00596156 -0.00214970
-0.05048832 0.00486374 0.00633647
-0.02396550 -0.00429828 -0.00552731
-0.01275626 -0.00075356 -0.00297496
0.02952269 0.00185585 0.00382381
-0.02670903 -0.01039993 -0.00367833
0.00673699 -0.00321668 0.00160159
0.01817419 -0.00104930 0.00439368
-0.03338808 -0.00623983 -0.00179293
-0.02251287 0.00009828 -0.00577145
0.06550699 0.00271456 -0.00101920
0.06302894 -0.00094895 -0.00150971
-0.00327191 0.00042750 0.00308288
-0.04640231 0.00460708 0.00491426
-0.04262796 0.01015035 0.00264164
0.00035680 0.00273452 0.00350942
-0.04239647 0.01021750 0.00260664
0.06283065 -0.00109451 0.00143416
0.05233269 0.00110775 0.00380293
-0.02274808 -0.01194031 -0.00287495
-0.02993556 0.01306573 -0.00122764
-0.02577371 0.01154588 -0.00043720
-0.03563873 0.00271937 -0.00443310
0.04102301 -0.00252399 0.00307475
-0.02054544 -0.00319690 -0.00526948
0.01349582 0.00321597 0.00135948
-0.04839334 -0.00720510 0.00425427
-0.02573240 -0.01222500 -0.00106202
0.03577598 -0.00152461 0.00390674
0.03133587 0.00153777 0.00397805
0.01252286 0.00317212 0.00072124
-0.03031718 0.00981945 -0.00363557
-0.02229223 0.00875715 -0.00165412
-0.02795696 0.00661233 -0.00503645
-0.04420842 -0.00238544 -0.00037325
-0.03536197 -0.00893903 -0.00012084
0.05191530 0.00279643 -0.00068623
0.02795422 0.00195540 0.00379236
-0.02063433 -0.01077259 -0.00260554
-0.04896358 -0.00019735 0.00699962
0.02680176 0.00296445 0.00001951
-0.03786754 0.00224397 -0.00371541
-0.02695214 -0.00538148 -0.00536826
-0.02894902 0.00982137 -0.00379513
-0.01559209 -0.00128663 -0.00157481
0.06278375 -0.00311065 0.00178359
-0.01043368 0.00085597 -0.00177597
-0.04666025 0.00405212 0.00178937
0.05936086 -0.00257310 -0.00108591
0.06168748 -0.00136952 0.00354168
0.05668274 0.00160936 -0.00180757
0.05151683 -0.00321668 0.00046639
0.04935603 0.00241857 0.00305073
0.05125199 0.00116766 0.00380141
-0.04755980 0.00801325 0.00388044
0.04480239 0.00321597 0.00063740
-0.04525278 -0.00052409 0.00028995
0.05875134 -0.00148296 0.00353964
-0.04609633 -0.00615682 0.00512149
0.02219320 0.00129208 -0.00136994
-0.00033906 0.00280260 0.00341504
0.05327015 0.00091621 0.00384939
0.00651660 0.00174266 0.00427602
-0.03411460 -0.00748812 -0.00376830
-0.00146587 -0.00174155 0.00334422
-0.00255788 -0.00273935 0.00226112
0.00153943 0.00275412 0.00346152
-0.02653191 -0.00763260 -0.00477216
0.02059789 0.00218209 -0.00081930
-0.03807983 0.00124504 -0.00368926
-0.01433717 -0.00184869 -0.00103218
-0.02388758 -0.00020763 -0.00589203
-0.00236669 0.00179253 -0.00070658
0.06277946 -0.00112240 0.00216422
-0.00234941 0.00281542 0.00204978
-0.03671943 0.00270411 -0.00150690
0.00262678 -0.00321668 0.00100749
-0.04562106 -0.00530990 0.00440281
-0.04371700 -0.00756446 0.00370186
-0.00707558 0.00124745 -0.00015836
0.02587569 0.00186250 0.00388122
-0.02367382 -0.00417859 -0.00552707
0.05616163 0.00321597 0.00159827
-0.02742142 0.01228792 -0.00269608
0.02815424 -0.00156686 0.00401565
-0.04063726 0.00522449 0.00084653
0.02625800 -0.00004962 -0.00168529
-0.04754820 0.00586967 0.00644816
0.01035005 -0.00082828 -0.00131743
0.05025411 -0.00113342 -0.00190380
-0.04699740 0.00664088 0.00600331
-0.02926430 -0.00528187 -0.00525006
0.02999781 -0.00190965 0.00378058
-0.04151224 -0.00468556 -0.00162372
0.02168137 0.00321597 0.00169417
-0.04339404 -0.00581514 0.00278869
-0.03677870 0.00711645 -0.00037099
0.01181363 -0.00215940 -0.00068461
-0.04471966 0.00370388 0.00323541
0.06654789 -0.00194620 0.00121201
0.00048765 0.00280829 0.00339200
-0.01880619 0.00482157 -0.00467154
-0.01936948 0.00083178 -0.00276467
-0.03042551 0.00646351 -0.00481622
-0.04126872 -0.00208944 -0.00214628
0.04046270 0.00283728 0.00267379
-0.03006263 -0.01027931 -0.00344394
-0.02509017 -0.00211062 -0.00587531
-0.05037246 -0.00546633 0.00576362
0.06156937 0.00295345 0.00213225
-0.01859159 0.00919091 -0.00303760
0.03605569 -0.00286930 -0.00029511
-0.02696774 0.00763903 -0.00225484
0.05881785 0.00310772 -0.00021838
-0.02969693 -0.01101860 -0.00313487
0.02394635 0.00230246 0.00357797
-0.02337265 0.00835748 -0.00191789
-0.01154495 0.00058274 -0.00238104
0.04938447 -0.00321668 0.00043337
-0.03750300 -0.00112389 -0.00135308
0.00157541 -0.00301962 0.00302539
-0.01845537 0.00704126 -0.00408741
0.02730280 -0.00161019 -0.00130780
-0.02395226 0.01140078 -0.00056541
-0.04863621 0.00124361 0.00318519
0.01703620 -0.00254509 0.00345219
-0.04781475 0.00368615 0.00274772
0.00037041 0.00104591 0.00469709
0.04651603 0.00264577 0.00283633
0.01954304 0.00175296 -0.00110036
-0.03454864 -0.01203860 0.00083049
0.03076658 -0.00321668 0.00073607
-0.01832194 0.00231423 -0.00488547
-0.02983957 0.00942383 -0.00124792
0.06324610 -0.00117099 -0.00210999
-0.04470560 -0.00075990 -0.00010369
-0.01342160 -0.00175476 -0.00062361
0.06136449 0.00317886 -0.00008232
-0.04402695 0.00471155 -0.00008731
-0.03959171 0.01167175 0.00107570
-0.03378483 0.00658316 -0.00415056
0.03324597 0.00025115 -0.00179970
-0.03216503 -0.01080430 -0.00280528
-0.02943712 -0.00593371 -0.00261468
-0.04234079 0.00681757 0.00241433
0.04458701 -0.00012391 -0.00199436
0.03077187 0.00169911 -0.00132396
-0.01395802 -0.00171767 -0.00345386
0.04092047 -0.00272136 0.00283758
-0.02612331 -0.00089406 -0.00357599
0.04647169 -0.00268242 -0.00074328
0.05493917 0.00195564 -0.00156343
0.00996054 0.00309018 0.00055830
0.03187700 -0.00297407 -0.00005625
-0.04626430 0.00308960 0.00444733
-0.03859100 -0.00889936 -0.00166281
0.00899838 -0.00306255 0.00051447
0.04289824 0.00238555 0.00319042
-0.01173931 0.00230292 -0.00048185
-0.02462832 -0.00334255 -0.00569789
-0.03368560 -0.00355289 -0.00482919
-0.03944446 -0.00783117 -0.00168924
-0.00266436 -0.00194711 0.00086687
0.03450023 0.00304362 0.00241307
-0.02480883 -0.01236390 -0.00272542
-0.05118036 -0.00172731 0.00772384
0.06064113 -0.00264165 -0.00102835
-0.02551702 -0.00756770 -0.00230095
0.06341050 0.00061731 0.00359667
-0.02846981 0.01150719 -0.00304106
0.03311473 0.00027206 -0.00179509
0.05159928 0.00321597 0.00049983
-0.02850049 -0.00051970 -0.00350866
