# .PCD v0.7 - Point Cloud Data file format
VERSION 0.7
FIELDS x y z
SIZE 4 4 4
TYPE F F F
COUNT 1 1 1
WIDTH 1000
HEIGHT 1
VIEWPOINT 0 0 0 1 0 0 0
POINTS 1000
DATA ascii
0.01536132 -0.00023296 -0.00895213
-0.02050781 0.01444036 -0.00181825
-0.02542234 -0.01742251 -0.00372141
0.04696928 -0.00192024 0.00558815
0.02600761 -0.04223046 0.00542264
0.02528625 0.02359577 0.00461890
-0.01329402 -0.02834288 -0.00328583
-0.02072417 -0.00757305 -0.00812563
-0.01697091 0.02403839 0.00187375
0.02624769 0.00209335 -0.00679163
0.00873344 0.01609953 -0.00366311
0.00731846 -0.02230787 -0.00780650
-0.00977938 0.04796521 0.00546603
-0.00846194 -0.02108341 -0.00800579
0.02773543 -0.03468110 0.00068968
0.03205097 -0.02901018 0.00570489
-0.02206340 0.04597026 0.00063782
0.03610320 0.00043823 0.00501914
-0.01600756 -0.01228270 -0.00848131
0.02464476 0.00835952 -0.00119057
-0.03575139 -0.01292049 0.00031328
-0.02467035 -0.02532829 -0.00044899
0.01138583 0.05081533 0.00407745
0.00336387 0.04124198 0.00568296
0.02986169 0.01672756 -0.00092755
0.03891223 -0.01086865 0.00060575
0.01221398 0.01710096 -0.00321541
0.01655904 0.02651731 -0.00318387
-0.02340436 0.02156583 0.00346318
-0.00690227 0.02270883 -0.00245253
0.03697265 -0.01129822 0.00545802
0.01056676 0.04217122 0.00570464
-0.04554021 -0.01515070 0.00553810
0.01210341 0.01443708 -0.00863500
0.01809763 0.00457428 -0.00866095
-0.03360488 -0.03814388 0.00523910
0.00438665 -0.00555870 -0.00912243
-0.02849944 0.00457114 0.00133257
-0.04041856 -0.03052871 0.00046249
-0.03993293 0.02452646 0.00559423
-0.02236277 0.02549855 0.00439782
-0.01851720 -0.02520475 0.00307803
-0.01722447 0.00786254 -0.00862699
0.04608289 0.02163097 0.00517718
-0.00413126 -0.04729316 0.00556872
0.03430464 0.03019718 0.00066652
-0.02854221 -0.01934071 -0.00084601
0.00697315 -0.02948085 -0.00423856
-0.03375085 -0.00129555 0.00432898
0.01411653 0.04720766 0.00041486
0.01246839 -0.03374453 -0.00021232
0.00705725 -0.01452449 -0.00388928
0.00337797 -0.00523928 -0.00412244
0.03614972 0.03093195 0.00555516
-0.02130311 -0.02619325 -0.00124401
0.02438104 -0.00718957 -0.00716889
-0.04517181 0.00780892 0.00565010
0.03267931 0.03114107 0.00067740
-0.01863111 -0.03799301 0.00071105
0.02450576 -0.02446888 -0.00076266
0.01446402 0.01793954 -0.00788716
0.00032042 0.04844987 0.00550843
-0.00274606 0.03928609 0.00555810
-0.00139292 0.04027028 0.00561638
-0.00144726 0.01449702 -0.00399560
-0.04459113 0.00458400 0.00068278
-0.04374746 0.02723532 0.00095790
-0.01283943 0.02198421 -0.00712119
-0.01209111 0.05053745 0.00426332
-0.01803741 -0.01299362 -0.00297433
-0.05222084 -0.00539833 0.00285870
0.03009072 0.03221018 0.00570425
0.00871160 -0.01911042 -0.00324869
0.04800860 -0.01075353 0.00042630
-0.03991645 -0.03410448 0.00319284
-0.02162614 -0.00368989 -0.00303207
-0.03951291 0.03381120 0.00149106
-0.03039748 -0.01748322 0.00474523
0.00622550 0.04242793 0.00070965
-0.02928954 0.01054629 -0.00334548
0.00103189 -0.01871349 -0.00866406
0.04344855 0.01038598 0.00570385
-0.04075089 -0.02505552 0.00052396
0.01397772 -0.03974431 0.00070056
-0.03798351 0.01592423 0.00065301
-0.03744618 -0.00982369 0.00041540
-0.04077973 0.00576252 0.00566616
0.02939847 -0.02929596 0.00066620
-0.00560607 -0.01297145 -0.00403298
0.00127447 0.00433700 -0.00912243
0.02505000 0.03444215 0.00071435
0.00019304 0.03604540 0.00501985
0.01562070 -0.00259303 -0.00390788
-0.02641780 0.03915945 0.00557415
-0.00666375 0.00762274 -0.00911873
0.01637783 -0.02399765 -0.00524952
-0.05092504 0.01217612 0.00352033
0.03632748 0.03074349 0.00053418
0.04495413 0.01472025 0.00055552
-0.00846455 -0.00347298 -0.00412244
0.04691015 -0.01167361 0.00551882
0.02820263 0.01057557 -0.00429044
0.03403893 0.02507937 0.00071545
-0.02314430 0.00468249 -0.00251001
0.03274685 -0.01343330 -0.00041990
0.02667913 0.01169603 0.00160448
0.00945218 -0.04893245 0.00038790
0.02646733 -0.03455846 0.00070229
-0.01970457 0.03042714 -0.00008586
-0.04065443 -0.02402173 0.00056830
0.01388651 -0.01387398 -0.00349707
0.00874189 -0.03113587 0.00367275
0.01041389 0.00369612 -0.00409843
-0.01576547 0.00075341 -0.00391114
-0.05101385 -0.00163289 0.00061410
0.04261921 0.00880422 0.00070139
0.01547623 0.01209535 -0.00348181
0.04344330 0.00891765 0.00068948
-0.00173278 -0.03838673 0.00036438
-0.05183783 -0.00766799 0.00350047
-0.03323939 -0.00156482 0.00413394
0.01179764 0.00471880 -0.00406198
-0.02277518 0.00957217 -0.00202623
0.00332471 -0.03433174 0.00454599
0.01963028 -0.00407186 -0.00849264
-0.01125312 -0.03022404 0.00362897
-0.02931839 0.03226273 0.00070013
-0.04699661 0.01966148 0.00058817
0.00196274 0.00082260 -0.00412244
0.04260242 -0.00114492 0.00570527
-0.00761938 0.04917278 0.00539962
0.03039439 -0.00356297 0.00270604
-0.02640282 -0.01889045 -0.00220773
-0.04397128 -0.00055122 0.00570435
-0.03015042 0.00863564 -0.00313473
0.01270318 -0.05074253 0.00391919
0.00609153 0.03659397 0.00013268
0.00074979 0.00469687 -0.00412244
0.03652797 0.02049388 0.00069349
0.01779250 0.03830979 0.00071557
-0.03443133 -0.02399404 0.00069151
0.02794617 -0.01804835 -0.00158260
-0.04778200 0.02095218 0.00173223
0.01177033 0.01200797 -0.00885191
0.01480957 -0.03651319 0.00050719
0.00230834 -0.01460605 -0.00899651
-0.00672735 -0.01313083 -0.00899819
0.02994611 -0.01266977 -0.00213378
0.01887400 0.04483230 0.00549106
-0.03834331 0.01367909 0.00563860
-0.00951938 0.00743572 -0.00407567
-0.00787428 0.00719217 -0.00410672
0.04100122 0.02112470 0.00563314
-0.00653129 -0.02087409 -0.00306094
0.03325619 0.00873609 0.00454656
-0.03091287 -0.01875698 0.00501949
-0.00228884 0.01385572 -0.00403162
0.00875391 -0.02900828 -0.00422382
0.02587236 -0.03782112 0.00066491
-0.03764428 -0.01987373 0.00570533
0.03251439 -0.02426648 0.00061366
-0.03387803 0.03901892 0.00465872
-0.01513839 -0.04074974 0.00570474
-0.03639258 -0.01045356 0.00029179
-0.03073067 0.04087127 0.00070336
-0.00515208 -0.03416880 -0.00081734
-0.02516402 -0.03275688 0.00065380
-0.01837038 0.03749769 0.00570571
-0.00329818 0.00906408 -0.00912243
0.00929659 -0.04623250 0.00558466
-0.03531795 0.03857900 0.00357738
-0.04076043 0.01648556 0.00570434
-0.00263954 -0.00288830 -0.00912243
-0.04345919 -0.00620930 0.00570441
-0.04419075 0.01081190 0.00067317
-0.01192005 -0.02770417 0.00232255
0.04098714 -0.03276220 0.00336565
0.04663718 -0.02386651 0.00211386
0.02582581 -0.02523824 0.00500817
0.02802864 -0.02686599 0.00547765
0.01620425 -0.02707565 -0.00304324
0.02404560 -0.01148656 -0.00667612
0.01650860 0.02758045 -0.00238748
-0.02215410 -0.02241824 0.00322630
0.00366857 -0.02076433 -0.00323152
-0.02232989 0.04028897 0.00064060
0.00721390 -0.02395099 -0.00735259
0.00573336 0.02135508 -0.00809526
-0.00964234 0.01375003 -0.00885281
-0.00675311 0.05038423 0.00056533
-0.01812986 -0.02530533 -0.00343026
-0.01990356 -0.02272171 0.00236472
-0.00378468 -0.02105905 -0.00316359
-0.01269561 0.02316942 -0.00083495
-0.01674981 0.00617367 -0.00876329
0.04609624 0.01203095 0.00555343
-0.03344960 -0.03415415 0.00052663
-0.00025437 -0.04776717 0.00555360
-0.00880385 0.02742672 -0.00532633
-0.01462263 -0.00101579 -0.00900080
-0.00213274 -0.01855832 -0.00363352
-0.03435382 0.03905800 0.00153315
0.03095987 -0.03158389 0.00570420
-0.03874099 -0.02463757 0.00564911
0.00153091 0.05232157 0.00234871
-0.03857602 0.00896745 0.00054715
0.04379606 -0.00075225 0.00069749
-0.01213322 -0.00032777 -0.00908013
-0.00742185 -0.01960933 -0.00835257
-0.03333644 0.02180995 0.00057791
0.01307418 -0.04928228 0.00056685
0.02139101 -0.01802656 0.00048454
-0.02914168 0.02812464 0.00562708
-0.03047831 -0.03628191 0.00055618
-0.02706728 0.01579677 -0.00315415
-0.03354828 0.03102466 0.00066713
0.02163128 0.03732825 0.00570489
-0.02830406 0.01502403 0.00358678
0.02632693 0.00146348 -0.00677911
0.00114742 0.01909079 -0.00859615
0.03811103 -0.03617433 0.00289894
0.01780998 -0.03007959 0.00470476
0.01816965 -0.02706453 -0.00208897
0.01762225 -0.04920016 0.00173980
-0.04028778 0.01012761 0.00067236
0.02726289 0.01401383 -0.00378360
-0.01163857 0.01092555 -0.00389413
0.01181567 0.00708869 -0.00904649
-0.00678734 -0.02801714 -0.00541458
0.02851159 -0.00181062 0.00107030
-0.04720287 0.01517550 0.00039883
0.00905417 0.00896807 -0.00406051
-0.03548373 0.02683524 0.00570396
-0.00162942 -0.02591206 -0.00698069
0.04082156 -0.00149928 0.00564633
-0.00720994 0.02611989 -0.00638468
0.01069115 -0.02647483 0.00098872
0.00397501 0.00532848 -0.00412244
-0.00142592 -0.00900091 -0.00412244
0.02730414 0.01098411 -0.00486497
-0.01355161 -0.04107762 0.00570489
0.00154442 -0.03667324 -0.00000409
-0.01532320 -0.00077883 -0.00394448
-0.03085956 -0.03372978 0.00067125
-0.02131216 -0.00423396 -0.00818939
-0.02322463 -0.01107398 -0.00705630
0.01852008 -0.04907550 0.00219100
-0.03291426 0.03477331 0.00554033
-0.00033561 0.02754395 0.00018997
-0.02305014 -0.02249282 -0.00244760
0.02933521 -0.02860453 0.00565039
-0.01182108 0.04977076 0.00072729
0.02017339 0.04501508 0.00543343
0.02201776 0.02135516 -0.00374418
-0.01489282 -0.00472930 -0.00893770
-0.02377150 0.01790899 0.00211429
-0.01577466 -0.00203002 -0.00390306
0.03318602 -0.03058927 0.00569167
-0.02856108 -0.02586187 0.00038386
0.01105820 0.03392391 -0.00027472
0.03347300 -0.03155760 0.00564543
-0.04528724 0.02597059 0.00185030
-0.01531607 -0.01160463 -0.00860151
-0.04601941 -0.01858801 0.00541895
0.03830670 -0.03565538 0.00383730
-0.01619935 0.04952127 0.00170048
-0.02104393 0.01219391 -0.00753489
0.00322431 -0.00887752 -0.00412244
0.02686844 -0.01740195 0.00353369
0.02535412 0.04070856 0.00553420
0.00518264 -0.01345315 -0.00401868
0.01096413 -0.03133233 0.00406842
-0.00957478 -0.04554071 0.00061839
-0.03424703 -0.01027861 -0.00028478
-0.02803495 0.04424917 0.00244608
0.02983345 0.01580310 -0.00119377
0.00538693 0.00891043 -0.00411167
0.02743597 -0.02890225 0.00057316
0.03678944 0.03642682 0.00454173
-0.01733297 -0.01625830 -0.00248666
0.04646812 0.01461352 0.00045718
-0.01272660 -0.03192136 0.00449937
-0.01691380 -0.00356922 -0.00380058
0.04025012 0.03347430 0.00338916
0.02795303 -0.02673349 0.00545729
-0.01588957 0.02299165 -0.00592346
-0.02640066 -0.01179751 -0.00532548
0.04223737 -0.01512819 0.00068293
-0.00323132 -0.01770230 -0.00875777
-0.00727330 0.02697967 0.00057271
-0.03994314 0.03076587 0.00532530
-0.00653479 -0.01518211 -0.00386086
-0.00937756 0.01036229 -0.00403360
0.02882463 -0.04365061 0.00182469
-0.00838201 0.04907430 0.00539711
-0.01344524 0.00549752 -0.00900714
0.03912875 0.00734325 0.00558263
0.01849099 -0.04696953 0.00042110
-0.02971058 -0.00076479 -0.00466172
-0.02086256 -0.04172503 0.00561189
0.01311549 -0.03197946 -0.00081229
-0.04611590 0.00324650 0.00063393
0.04475582 0.01706021 0.00554044
0.00576791 0.01628662 -0.00881946
-0.02579098 -0.01305418 -0.00534131
-0.00931293 -0.00429747 -0.00911799
0.02078058 0.04514053 0.00038778
-0.05054696 -0.01311132 0.00172310
-0.03593599 -0.01387741 0.00543684
0.02729916 -0.03513383 0.00068840
0.01856701 -0.02712833 -0.00187447
-0.01422901 -0.00311378 -0.00900761
-0.04219954 0.00759539 0.00570509
0.04380731 0.02443632 0.00039072
-0.01411586 0.00596168 -0.00394329
-0.00263163 0.03345983 -0.00127401
0.00733358 0.02160593 -0.00274544
0.01319543 0.02328116 -0.00055367
0.03693627 0.02381261 0.00570433
-0.00550527 -0.01431194 -0.00395061
-0.01481816 0.01256777 -0.00351128
0.01631942 0.01108446 -0.00852440
0.01954201 0.03090074 0.00514000
-0.00831449 -0.03533008 -0.00010893
0.00567504 -0.03577945 -0.00012803
0.00683115 -0.04599663 0.00562094
-0.01805629 0.01735880 -0.00729265
-0.00912828 -0.04443598 0.00568008
0.01711745 0.03601876 0.00558894
0.01843667 -0.03579166 0.00059471
-0.00402123 0.02188563 -0.00292841
-0.01422612 0.03124565 0.00454197
0.02737792 0.04297756 0.00061282
-0.01851572 -0.01956134 -0.00051997
0.02178381 -0.02244035 -0.00329444
-0.01499645 -0.04113054 0.00570452
-0.00046902 -0.00109103 -0.00912243
0.02845843 -0.00757696 -0.00490180
0.01672270 0.01550925 -0.00795635
-0.02402734 -0.03664306 0.00069861
-0.00848248 0.04447900 0.00067524
0.04627738 -0.00314508 0.00062128
-0.01986969 0.04030820 0.00569548
0.03201658 -0.04022419 0.00078601
0.00914345 0.00696241 -0.00408828
-0.03702896 -0.03568343 0.00079488
0.02362662 0.03588681 0.00070853
-0.00357644 0.02868478 -0.00526048
0.01070559 -0.01198521 -0.00389376
0.01290684 -0.00825179 -0.00394817
-0.00028874 0.03690135 0.00008717
-0.03683633 -0.01971077 0.00570139
-0.01243290 -0.02729815 0.00219854
-0.04561843 0.02473699 0.00129023
0.00104749 -0.01901273 -0.00358345
0.02057076 -0.01974782 0.00097744
0.04795523 0.01143946 0.00041668
-0.01235482 0.01024972 -0.00890355
-0.03250137 -0.02641639 0.00570583
0.01638685 -0.00078391 -0.00386415
0.01712480 -0.04957323 0.00350893
0.04045182 -0.02737059 0.00045468
-0.04549357 -0.01497848 0.00554345
0.01777883 -0.01674927 -0.00752448
-0.00496602 -0.05104922 0.00503868
-0.03893908 -0.00948304 0.00058717
0.01800858 -0.03450116 0.00043722
-0.01732633 0.02241939 0.00091499
-0.00704110 -0.00342107 -0.00912243
0.04822580 -0.01307944 0.00038629
-0.02631990 -0.01375341 -0.00470960
0.04580892 -0.01241756 0.00556503
-0.00970838 -0.02689111 0.00102420
0.02616165 -0.03762717 0.00066501
-0.03195219 -0.03111504 0.00068709
-0.01263465 -0.03822936 0.00059557
-0.01468242 -0.03545831 0.00541268
0.03619623 -0.00971489 0.00529757
-0.00933394 -0.04949651 0.00535037
-0.03829809 -0.03439508 0.00490735
-0.01870506 0.03843299 0.00570516
0.00868966 0.02200498 -0.00247749
0.01627536 -0.04723005 0.00539316
0.00749005 0.00599199 -0.00912243
0.01306750 0.02456482 0.00045816
-0.00531350 -0.03641334 0.00515526
0.05146176 0.00261075 0.00483225
-0.00990146 0.05146322 0.00295057
-0.02052120 -0.04633820 0.00529549
0.02485908 -0.00508233 -0.00718672
0.01641628 -0.02376283 0.00128616
-0.00131194 0.00081478 -0.00912243
0.02183871 -0.00541621 -0.00803589
0.00117010 -0.02620604 -0.00686854
-0.02576917 0.04127565 0.00045861
0.01868378 -0.01293826 -0.00799645
-0.02567973 -0.01802618 0.00314115
-0.00924430 -0.03552457 0.00513893
0.00633615 -0.01214133 -0.00905049
-0.01186737 0.03074312 -0.00172740
0.00566532 0.04881845 0.00042401
0.01915433 -0.01497833 -0.00223877
-0.01696369 0.03023087 -0.00068556
-0.01100352 0.00632020 -0.00406247
0.02556638 0.03081194 0.00559904
0.04101335 0.03210224 0.00163271
0.01112999 0.00777653 -0.00404243
0.00097233 0.04708231 0.00056855
-0.03059383 0.02674741 0.00563571
-0.00409708 -0.03794542 0.00032810
0.04032223 0.02947311 0.00538347
-0.01961432 0.04596658 0.00537951
0.02491138 0.00330459 -0.00180371
-0.03649596 0.02840100 0.00062888
-0.00696865 0.00299482 -0.00412244
0.02786588 0.01271960 0.00275453
-0.01868837 0.04552913 0.00544419
-0.00460028 -0.04914049 0.00042007
0.02420507 -0.04014368 0.00559914
0.02557700 0.04026286 0.00554793
0.00014601 0.05223785 0.00203604
-0.02236343 0.03729282 0.00070118
0.03511759 -0.01553339 0.00036672
-0.05156246 -0.00965922 0.00246254
0.02397907 0.01121879 -0.00081925
-0.02996992 -0.01103699 0.00349110
-0.01213277 -0.02363928 -0.00082540
-0.02256308 -0.00252892 -0.00799609
-0.01395840 0.02677793 -0.00418583
0.02640555 0.00595243 -0.00032766
-0.05005704 -0.01446797 0.00155504
0.04439825 -0.00555357 0.00068426
0.02716773 -0.00497811 0.00018519
0.00640555 -0.00310064 -0.00912243
0.02702229 0.02105357 -0.00090703
-0.00842477 0.01675695 -0.00864400
0.04253115 -0.01169713 0.00570425
-0.03231968 -0.01390806 -0.00050779
-0.05191352 -0.00670969 0.00207044
-0.01446981 0.01951178 -0.00753196
0.01101168 0.03082096 -0.00187924
-0.00313830 0.02061706 -0.00325116
-0.00018208 -0.03920211 0.00552423
0.02031392 0.00112780 -0.00337581
-0.00932878 -0.00501521 -0.00911143
0.03664608 0.00258611 0.00002838
0.02621792 0.00459216 -0.00070855
0.02845075 -0.01740818 -0.00150801
0.03164673 -0.02100494 0.00536280
-0.04347563 -0.01142659 0.00569888
-0.00765026 0.01919530 -0.00329404
-0.04549426 -0.02586678 0.00195472
-0.04723278 -0.01754441 0.00534177
-0.04001330 0.01315120 0.00070502
0.03358275 0.00309613 -0.00122112
-0.02601728 0.00420235 -0.00678855
0.01895740 -0.01420504 -0.00250118
-0.03833213 0.02869136 0.00553994
-0.00970678 0.03120900 -0.00191637
-0.03886257 -0.01559006 0.00068705
0.02991229 -0.00098728 -0.00448456
-0.02233300 -0.00533042 -0.00794044
-0.00540943 0.05088392 0.00072475
-0.01892241 0.00123761 -0.00358452
-0.00777877 -0.03417268 -0.00058027
-0.03459377 0.03339525 0.00552902
0.00799367 0.00827504 -0.00408782
0.00293169 0.00198717 -0.00412244
-0.00246552 0.00200611 -0.00912243
-0.01737636 -0.02854214 0.00416899
-0.00068838 0.02948853 -0.00477302
-0.03038257 0.03868701 0.00042417
0.01645338 -0.00210004 -0.00887130
0.05042337 0.00747634 0.00515945
0.00278769 -0.00124598 -0.00912243
0.03965165 -0.00713858 0.00060033
0.04585835 -0.00968526 0.00058881
0.01398328 0.05045454 0.00333156
-0.01883469 0.03093727 0.00505931
-0.00627816 0.04003226 0.00061864
0.04806130 0.01819282 0.00491267
-0.01776936 0.03406060 0.00038629
0.00902989 0.04213756 0.00570491
-0.00173993 -0.02244380 -0.00289962
-0.03354188 0.01073644 0.00481812
0.02016972 0.01928107 -0.00595143
-0.00907680 0.04560118 0.00060921
0.03010675 0.03640662 0.00055820
0.00459032 -0.00849782 -0.00412244
0.03757094 0.03287745 0.00538492
-0.01561420 -0.01953175 -0.00735506
-0.02404894 0.02426983 -0.00095450
0.01424004 -0.00395879 -0.00398672
0.01544915 0.02047835 -0.00704216
0.03149532 -0.00995321 -0.00172574
-0.02845652 -0.04240623 0.00516658
0.02160390 -0.01224205 -0.00199813
-0.02513888 0.00780928 -0.00096508
0.00488954 0.02045079 -0.00321152
-0.00201571 0.01612086 -0.00387049
0.00693137 -0.04995088 0.00534228
-0.00483648 0.01925352 -0.00850573
0.03783185 -0.00418346 0.00032200
-0.03925103 -0.03391635 0.00120856
-0.03908190 0.00040927 0.00047069
0.00573843 0.01508945 -0.00387856
0.01359988 0.01390511 -0.00855910
0.03069275 0.03087206 0.00070083
0.01294690 -0.04537163 0.00558341
-0.03573730 -0.01938465 0.00061961
-0.00048142 0.00954000 -0.00412243
0.02043931 0.01108424 -0.00783663
0.04556340 0.01322555 0.00556433
-0.00506622 0.02594727 -0.00081018
-0.03703802 -0.03351214 0.00038671
-0.02693369 -0.01525649 0.00289371
-0.01348871 0.01432928 -0.00347702
0.00217932 -0.00566636 -0.00412244
0.02436095 -0.02538467 0.00478673
0.04153213 -0.02574389 0.00045216
0.01686047 0.00715835 -0.00870343
-0.03784291 -0.01368512 0.00059683
0.00744713 -0.01638174 -0.00875641
0.00218300 0.04405189 0.00069201
-0.02843778 -0.03190557 0.00570523
-0.04610132 -0.02286493 0.00492818
-0.02389684 0.04608052 0.00135787
0.00132108 -0.02797084 0.00048051
-0.02550046 -0.03566232 0.00570447
0.04684029 -0.01029450 0.00051269
0.00654821 -0.02602617 -0.00060659
0.01220718 0.03891798 0.00063347
-0.04039533 0.00975538 0.00569035
-0.03119631 0.00676127 0.00350118
0.01063863 -0.05144234 0.00312315
0.04215501 0.00322635 0.00570552
0.00940943 -0.02334890 -0.00183326
-0.03323709 -0.01088109 0.00472231
-0.03711458 -0.03168974 0.00045721
0.01415464 -0.01995777 -0.00217506
0.00176080 -0.03682865 0.00517586
0.03902831 -0.01807938 0.00570502
0.00407745 0.02506929 -0.00714113
-0.02897768 0.01752581 -0.00113363
-0.01043119 -0.04696411 0.00553548
-0.00228984 0.01242064 -0.00406267
-0.03294171 -0.00779337 -0.00118164
-0.00387545 0.03098206 0.00313299
0.05163307 0.00233521 0.00105991
0.00036073 0.02446143 -0.00748055
-0.03598335 0.00275755 0.00501083
0.02227935 -0.01840174 0.00131772
-0.02440282 0.02366290 -0.00105642
-0.03286803 0.01172168 0.00471623
-0.02658334 -0.00776449 0.00023119
0.02427138 0.03578141 0.00070466
-0.04706192 0.01973268 0.00512287
0.03171218 0.02962939 0.00570471
-0.03062130 0.04182943 0.00126661
0.01067611 -0.02738636 -0.00498840
-0.00308238 -0.03539460 -0.00038963
0.02810163 0.03828490 0.00555912
-0.01029102 -0.02946388 -0.00336609
-0.01028779 -0.05151644 0.00270334
0.02956642 -0.01815044 0.00462855
0.03392342 -0.00298461 0.00442215
-0.02587544 -0.03852338 0.00062621
-0.00087536 0.04479120 0.00068202
0.02358334 -0.03048494 0.00038622
-0.04424917 0.01707447 0.00556624
-0.04292517 0.01784825 0.00061303
-0.02626188 0.00754463 -0.00629380
0.00878840 -0.02674614 -0.00588286
-0.02895837 0.00459364 0.00173428
0.04347635 0.00962869 0.00570396
0.02165480 0.00631003 -0.00284779
0.00592575 0.01649988 -0.00377194
0.00438582 0.01249939 -0.00404908
-0.02468638 0.02252082 0.00421842
0.00166321 -0.00874049 -0.00412244
0.00671996 -0.03034603 0.00294810
-0.02314642 -0.02097819 -0.00332074
-0.01006689 -0.03789057 0.00047895
-0.03308774 -0.01204528 0.00480439
0.00041110 0.00121920 -0.00912243
-0.01161506 0.02733763 0.00209106
-0.05202573 0.00625548 0.00227325
0.04158365 0.01646566 0.00570382
0.01072527 -0.01393951 -0.00880597
-0.00743957 -0.02202606 -0.00265580
-0.04363622 -0.02536720 0.00042547
-0.02424404 -0.02047946 0.00335822
-0.02716020 -0.02377960 0.00500459
0.02398350 0.03251725 0.00562262
0.00547026 0.03329438 -0.00118183
-0.02385956 -0.02682166 -0.00024423
-0.03953502 -0.01176133 0.00566829
0.02555817 -0.03531067 0.00070180
0.03146834 0.03070699 0.00570431
0.01376211 -0.05069118 0.00270016
0.00533495 -0.03546683 -0.00025875
-0.00986283 -0.00559467 -0.00909668
-0.01018406 0.01078279 -0.00397838
0.03106287 -0.01156940 -0.00165096
-0.01107331 0.03629886 0.00537227
-0.04845671 -0.00179958 0.00551028
0.02900402 -0.01404969 -0.00239178
0.00772905 0.02041554 -0.00303501
0.03123222 -0.02044789 0.00016344
0.00926934 0.04698178 0.00051143
-0.01251947 -0.03258657 -0.00063611
-0.02203546 0.01801898 0.00101667
-0.04679775 0.00748771 0.00556853
-0.03607705 0.03058191 0.00557075
-0.00348674 -0.02224290 -0.00289760
-0.03822913 0.01173262 0.00058411
-0.04715308 -0.00206767 0.00056534
0.03666773 -0.02510351 0.00068894
0.03273931 0.00987971 0.00447806
-0.03675674 0.02553492 0.00570379
0.02301782 -0.03026490 0.00031058
0.02560871 -0.03827690 0.00064880
-0.01378446 0.02088357 -0.00184137
-0.03274714 -0.01258990 0.00475667
-0.02921142 0.04041009 0.00538998
-0.03182995 0.01164363 0.00437732
0.01391566 -0.00706708 -0.00392639
-0.03567421 -0.03736562 0.00476520
-0.04778332 -0.00915775 0.00549807
-0.00260297 0.03617089 0.00506903
0.01870059 -0.04094194 0.00068113
-0.04369705 -0.02229663 0.00546644
-0.03574363 0.02533837 0.00069696
0.02006841 0.00263162 -0.00846475
-0.04048441 0.03326659 0.00263202
-0.03099274 -0.04054866 0.00058149
-0.02510591 0.03533169 0.00070326
-0.00718977 -0.00523173 -0.00912243
-0.00198393 0.01281480 -0.00405540
0.02063760 -0.03588629 0.00065999
0.00567424 0.01493376 -0.00389110
-0.02466116 0.03171198 0.00560677
-0.04272085 -0.00675057 0.00570486
-0.00623780 0.05060694 0.00063366
-0.03996904 0.00018203 0.00558953
0.01268089 0.01677443 -0.00831014
0.04826679 -0.01936167 0.00438048
-0.03380380 0.03043340 0.00067268
0.02412223 -0.01380239 -0.00606933
-0.02137721 0.04550022 0.00534547
-0.01557976 -0.03402479 0.00017585
-0.05131769 -0.00816231 0.00132627
-0.04145495 -0.00841968 0.00071341
0.01947326 0.01747577 -0.00105691
0.02309717 -0.03308897 0.00060091
-0.00114075 -0.03784473 0.00028412
0.02528430 -0.00113113 -0.00169622
-0.01921296 -0.04686970 0.00045322
-0.02682648 -0.02894613 0.00051747
-0.02560651 -0.00123572 -0.00707851
-0.00288904 -0.05157577 0.00478637
0.00638558 -0.04382119 0.00069174
0.02743053 -0.01266190 -0.00426883
0.01840999 0.04702787 0.00529952
-0.01115205 -0.01313449 -0.00883196
-0.01211327 -0.01705470 -0.00835805
-0.03670751 -0.02193143 0.00071345
-0.01684838 0.03811596 0.00068301
0.00810859 0.04109499 0.00069573
-0.02649263 -0.03993944 0.00052111
-0.03899371 0.02445439 0.00563845
0.04603360 -0.00672381 0.00561558
-0.00833311 -0.02016015 -0.00818317
0.00835181 0.03818017 0.00553049
-0.01884358 -0.00436277 -0.00353525
0.02029328 -0.02476105 -0.00261898
0.00998964 0.01561410 -0.00363263
0.03862053 -0.03375145 0.00501790
0.03727218 -0.01311039 0.00556123
-0.04140680 0.00263528 0.00568503
-0.01128541 -0.01289728 -0.00883835
0.00487440 0.00231146 -0.00412244
-0.04733520 0.00340549 0.00054873
-0.00813851 -0.05025527 0.00053472
-0.00245779 0.00632495 -0.00412244
0.04269603 -0.01066658 0.00069480
-0.04949865 0.01536858 0.00451460
-0.00249862 -0.04996049 0.00038635
-0.00113314 -0.01615961 -0.00890223
0.03421650 -0.00080061 0.00448423
-0.02613884 0.01564600 0.00262657
-0.01508533 0.03405141 0.00017078
0.02707142 0.00817032 0.00082988
-0.02591455 -0.02764109 0.00534530
-0.03297710 -0.03571656 0.00047206
-0.00323961 -0.03911391 0.00048513
0.02704555 -0.01197032 0.00192669
-0.02041013 -0.00288069 -0.00840929
0.01020344 0.04516826 0.00062145
-0.04687746 0.00289264 0.00559150
-0.00639301 -0.03372872 -0.00094017
0.04774434 0.02026873 0.00445127
-0.04429596 -0.00833002 0.00067955
0.03380502 -0.03747803 0.00533098
0.04890537 0.01542637 0.00498079
0.04003378 -0.03377060 0.00371156
0.02774865 0.02926918 0.00060695
0.00278281 -0.01288813 -0.00906068
0.00229828 -0.04000356 0.00559191
0.00457024 0.00621138 -0.00412243
0.01191145 -0.00667324 -0.00905061
-0.01781729 -0.04923153 0.00381445
-0.03313109 0.00576664 -0.00127669
0.03513397 0.00002511 0.00478544
0.03835800 0.01580076 0.00568764
-0.04308620 -0.01021401 0.00069135
0.00592819 0.01289196 -0.00902595
0.00796571 -0.00708620 -0.00911026
0.05082600 -0.01150569 0.00417350
-0.00330590 -0.04576902 0.00066211
0.00991138 -0.00826784 -0.00906559
-0.01413798 0.04751711 0.00541488
-0.02979484 0.00385759 0.00229131
-0.00120374 -0.00985957 -0.00912243
-0.00298457 0.01001097 -0.00411088
0.03438723 -0.03526683 0.00042733
0.02357255 -0.00607971 -0.00220914
-0.01501394 -0.04307856 0.00067253
-0.04034317 -0.00007714 0.00060246
-0.01386124 -0.02505060 -0.00555592
-0.04037030 -0.00565255 0.00062654
0.04376298 0.02382798 0.00038703
0.02837913 -0.02089101 0.00481151
-0.00371874 -0.02885957 0.00146860
0.00672495 -0.00374461 -0.00912243
-0.01249561 0.02600325 -0.00530464
0.01491681 -0.01391043 -0.00337985
0.00864148 -0.04070962 0.00067190
-0.02791273 -0.02225676 -0.00031804
-0.02024428 -0.03042571 -0.00004794
-0.03325651 -0.04064824 0.00308816
0.01065303 0.04163664 0.00570498
-0.00239975 -0.04626926 0.00562874
0.03160961 -0.01967258 0.00526038
0.04404774 0.01280428 0.00564777
-0.01283864 -0.03325274 0.00489226
0.03136045 -0.03832049 0.00542974
0.01637244 0.00437922 -0.00884541
-0.00029894 -0.05207723 0.00436117
-0.01248940 0.02217901 -0.00157201
0.02151047 0.03853953 0.00069166
-0.00148131 0.00641457 -0.00912243
-0.01399301 -0.02563211 0.00156749
0.03877731 0.00413222 0.00045998
-0.04144546 0.02319837 0.00556156
0.02041234 0.00084979 -0.00844042
-0.02174441 0.02326915 0.00347936
0.03004670 0.02234437 0.00530222
0.01899766 0.00157400 -0.00356795
-0.00950728 0.00649149 -0.00909170
-0.04889438 -0.00880998 0.00039352
-0.03655718 -0.01185935 0.00037204
0.04509022 -0.00682579 0.00067166
-0.01358990 0.04551759 0.00555914
-0.00428249 0.02845642 -0.00534602
-0.03732681 0.02929672 0.00556377
0.04619939 -0.00817051 0.00058549
-0.01155277 -0.02728672 -0.00479025
0.02088582 0.01184254 -0.00234034
0.03088639 -0.02616293 0.00060902
0.02722477 0.00117162 -0.00015055
0.00638082 -0.02409984 -0.00196818
-0.01783632 -0.00626211 -0.00359579
0.02768548 -0.03347598 0.00070379
0.01510101 0.03774180 0.00563723
0.01479814 0.04143405 0.00069368
-0.02859783 -0.04359273 0.00150951
-0.04036648 -0.02306258 0.00061809
0.03609045 -0.02306635 0.00570515
0.01066768 -0.01168128 -0.00892559
0.03175772 -0.02997828 0.00070009
-0.01035437 0.04884903 0.00538452
0.00835188 0.02979837 0.00296842
-0.01740943 0.01704920 -0.00216861
-0.02452827 0.00317291 -0.00742271
0.00360163 -0.03716819 0.00015370
-0.04852642 -0.00920052 0.00041355
-0.02481311 0.03083234 0.00055162
0.00182486 0.01027698 -0.00411090
-0.03748799 0.00041426 0.00529895
0.01662195 -0.00750054 -0.00872214
-0.02223520 0.03556558 0.00570570
0.00481670 0.02752669 0.00057638
0.03925950 -0.00647691 0.00057287
0.03084807 -0.03103698 0.00069914
-0.01886915 0.00340878 -0.00859907
0.04903168 -0.00291636 0.00043139
-0.00572717 -0.03826084 0.00040289
0.03685311 0.00991731 0.00539831
-0.04905355 -0.01333830 0.00053048
-0.02967995 0.03939348 0.00543525
-0.00500150 0.00284820 -0.00412244
0.04441248 0.02748237 0.00192095
0.02935435 0.03444706 0.00567779
0.03737452 0.01923000 0.00570565
0.01757773 0.04541810 0.00548792
-0.02909074 0.03888380 0.00046756
0.00010026 0.02577029 -0.00136987
-0.02832481 -0.00557688 -0.00534701
0.02329894 0.00757069 -0.00211943
0.04314521 -0.02991872 0.00322163
0.00356144 -0.03890666 0.00550773
0.03445947 0.02945878 0.00067488
0.00955009 -0.04506823 0.00064849
-0.00148720 0.02188758 -0.00301143
0.01473997 0.03288915 0.00502164
-0.03753186 0.00188624 0.00023861
-0.01670767 -0.02999484 0.00449291
-0.00930287 -0.04098674 0.00069439
-0.02934368 -0.01692890 0.00434394
0.02897305 -0.01010794 0.00275480
0.04374123 -0.01218135 0.00067500
-0.00968366 -0.04492128 0.00564931
0.05041960 -0.01429167 0.00344269
0.02156736 0.00113773 -0.00820943
0.03572463 0.02903484 0.00563789
-0.02076926 0.03834907 0.00069944
0.02401226 -0.03591610 0.00570492
0.02371877 0.00067195 -0.00247181
-0.02294884 0.00139680 -0.00792345
-0.02169402 -0.02101398 0.00236290
0.02783291 0.01289246 0.00277832
-0.02719364 -0.01232126 0.00212220
0.03686320 0.03631678 0.00456613
0.03402588 0.01735599 0.00034977
-0.02298580 0.01365145 -0.00660201
-0.02965884 -0.01607203 0.00430291
-0.02879270 -0.00522003 0.00166725
0.04522321 0.01207828 0.00559751
-0.02572310 0.01789893 0.00317330
-0.03775849 0.03633272 0.00307247
0.00914869 0.03489080 0.00502929
-0.01006566 0.05009632 0.00069098
-0.04545209 0.01659578 0.00048063
-0.01872212 0.04843130 0.00143312
0.00554519 0.00248228 -0.00412244
0.00394379 0.00552808 -0.00412244
0.02224458 -0.02073919 0.00251492
0.04436483 0.01998672 0.00046171
0.02475904 -0.03201164 0.00561795
-0.01983448 0.03435281 0.00056558
-0.00237692 0.01054096 -0.00410299
-0.02872528 -0.02221762 0.00505311
-0.05239096 0.00135216 0.00339863
-0.02729013 0.01338853 -0.00404844
-0.05074022 -0.00064880 0.00525534
-0.02471448 -0.01363328 0.00072479
0.00987120 -0.01644508 -0.00860860
-0.03236959 0.04083184 0.00406302
-0.01260340 0.04279584 0.00068519
-0.03834430 -0.00459662 0.00040348
0.04539738 -0.00919293 0.00562555
0.00293926 -0.00871846 -0.00912243
-0.01766135 0.01118784 -0.00324566
-0.02585579 -0.00818461 -0.00643459
0.05148172 -0.00682270 0.00133159
0.00134118 0.01090850 -0.00910108
0.03776267 -0.03492215 0.00081640
-0.00676344 0.03074937 0.00328085
0.00940242 0.01954470 -0.00817844
-0.03089492 -0.01205036 -0.00165380
-0.02232574 -0.01671160 0.00039731
0.03622048 -0.00099943 -0.00010506
0.01611024 0.04110369 0.00069149
-0.00868314 0.00424220 -0.00912243
-0.03523498 0.03820776 0.00427542
0.00610849 0.00673524 -0.00912243
0.01769338 -0.03172360 -0.00009727
-0.02840501 0.00643558 0.00155879
0.04470163 0.02565511 0.00097729
0.05210540 0.00307078 0.00403091
0.03994083 0.00663391 0.00562424
0.03862082 -0.03362973 0.00506221
-0.03127839 0.04063959 0.00079192
0.00492653 0.00355483 -0.00412244
0.01372901 -0.03062053 0.00423450
0.03397532 0.00806755 -0.00058619
-0.04368873 0.00413518 0.00570440
-0.03283946 0.03449531 0.00555356
-0.05077368 0.01290602 0.00341084
-0.02744446 -0.02009274 -0.00109782
-0.03531605 0.01111799 0.00009779
0.03254865 0.00220530 -0.00199998
0.01457070 0.01856186 -0.00772802
-0.01346256 -0.01464954 -0.00346325
0.03262670 -0.00408893 0.00395569
-0.02823075 -0.04362645 0.00128025
0.04413714 -0.02603236 0.00070213
0.03139752 -0.02737240 0.00067430
0.03542189 -0.01911713 0.00059598
-0.00745678 -0.03267085 -0.00142777
-0.01349887 -0.02673906 -0.00451857
-0.00223138 -0.04516183 0.00067859
-0.01679258 0.01953182 -0.00700332
-0.02930273 0.02080787 -0.00018592
-0.01029946 0.03487278 0.00509261
0.04897713 -0.01834142 0.00380683
0.02566858 -0.00848008 -0.00038916
0.04419170 -0.01655123 0.00558038
-0.03362527 0.01701825 0.00027317
0.00353373 0.01497294 -0.00894604
0.02033403 -0.01259105 -0.00241494
-0.01963520 0.03108791 0.00518590
0.03548376 0.03594241 0.00044550
0.05074313 0.00487419 0.00060138
0.00395420 0.02281903 -0.00785435
-0.03855338 0.01638079 0.00570576
0.00001878 -0.00416620 -0.00912243
0.02314588 0.03445911 0.00569068
-0.03666142 -0.00131807 0.00000934
0.01767999 0.02684696 -0.00237674
-0.03793830 0.00069193 0.00030643
-0.04620401 -0.00752192 0.00059423
-0.01380506 0.05047903 0.00228805
0.01979313 -0.00053246 -0.00346567
0.01072527 -0.00508910 -0.00908578
0.02623642 0.00906296 0.00035557
-0.01728370 -0.03129670 -0.00030654
-0.01603997 0.03650907 0.00058191
-0.00595568 0.01497624 -0.00889750
0.02192647 0.01920862 0.00163796
-0.01616838 -0.01322408 -0.00327190
0.04718193 -0.00736281 0.00052638
-0.00536587 -0.03721670 0.00022213
-0.03401131 0.01721137 0.00539166
-0.02348351 0.04120310 0.00556394
0.03345922 0.02502948 0.00068705
-0.02823192 0.02650484 0.00042463
0.00583411 -0.01853284 -0.00857794
-0.02999640 -0.00423639 0.00245822
0.01173974 -0.03484879 0.00515488
0.01415645 0.04890273 0.00515998
-0.02472050 -0.00878766 -0.00684788
0.00836504 0.02445498 -0.00130072
0.00698185 0.01098250 -0.00906122
0.01160581 -0.02173192 -0.00747033
-0.00591795 0.00185246 -0.00412244
0.03061121 0.00697120 0.00319268
-0.02161713 -0.00569322 -0.00292904
-0.03304348 0.03913139 0.00073453
0.00686971 0.00159020 -0.00412244
0.03782696 0.02746336 0.00559958
-0.01434636 -0.01801863 -0.00272678
0.02300119 -0.01182825 -0.00137259
0.02379540 0.03771734 0.00570387
-0.03326043 0.01350247 -0.00021074
-0.04048203 -0.00613769 0.00564919
-0.00213996 0.00516470 -0.00412244
0.03636453 0.01662133 0.00559399
0.03305378 -0.03870173 0.00054253
0.02203156 -0.02546737 0.00427937
-0.00941295 -0.00310484 -0.00412244
0.02280279 -0.02454852 -0.00140976
0.00194664 -0.03158269 -0.00296429
0.01674324 0.01913140 -0.00713548
0.00429707 -0.03137912 -0.00293673
-0.00516936 0.03710703 0.00530693
-0.00008304 -0.01256344 -0.00406772
-0.01789586 0.00946898 -0.00846184
-0.00311935 -0.01589119 -0.00388609
-0.04101086 -0.02266271 0.00559916
-0.03442783 0.03700199 0.00529693
-0.04085945 0.00762755 0.00569132
-0.02901579 0.00157599 0.00150033
0.01334334 -0.01163111 -0.00879147
-0.01548499 -0.02116326 -0.00686734
0.04336670 -0.01663087 0.00562029
0.03314644 -0.03259677 0.00561870
0.00193127 0.03645638 -0.00001313
0.00809870 -0.02896501 0.00225978
-0.02618983 0.01632762 -0.00358475
0.00649476 -0.03880759 0.00049708
0.03076814 -0.03627091 0.00054523
0.04291067 -0.00601311 0.00570479
0.02327761 0.01121749 -0.00134879
0.00700464 0.04360035 0.00570417
0.01843459 0.01392349 -0.00787699
-0.02036077 -0.02389078 0.00314797
0.02113995 0.04337630 0.00048651
-0.04584899 -0.02554997 0.00316823
-0.00652774 0.03233006 -0.00170197
0.02694631 0.04492547 0.00265953
-0.02083839 0.00322238 -0.00831254
0.00647312 -0.01474497 -0.00389218
0.02008856 -0.04761420 0.00099656
0.01900300 -0.01294571 -0.00793149
-0.01003015 -0.05139906 0.00196881
-0.00717919 0.02599185 -0.00036026
-0.03565359 0.01977388 0.00063006
-0.03963082 -0.00387775 0.00057382
