# .PCD v0.7 - Point Cloud Data file format
VERSION 0.7
FIELDS x y z
SIZE 4 4 4
TYPE F F F
COUNT 1 1 1
WIDTH 1000
HEIGHT 1
VIEWPOINT 0 0 0 1 0 0 0
POINTS 1000
DATA ascii
-0.02641800 0.01225425 0.00985854
-0.01432886 0.01261232 -0.02743007
0.02206233 -0.01717081 -0.00260122
-0.01512209 0.01148566 -0.02361326
0.02855008 0.00665284 0.00916943
0.01729286 -0.01881193 -0.01082941
0.01661074 -0.01522482 -0.02207705
-0.00215083 0.00985284 -0.02864927
0.02223886 0.00995125 -0.01543714
0.01692419 0.02451134 0.00819190
0.01284160 0.02572162 -0.00403982
0.00426306 -0.02965428 0.01584031
-0.00135207 -0.02333707 -0.02019406
-0.01773657 0.02524980 -0.00508711
-0.02136654 -0.01823751 -0.00013768
0.01785151 -0.02200353 -0.01043017
0.01186791 -0.02110570 -0.01913243
0.01651128 -0.01543702 -0.01720549
0.01722881 -0.00619146 -0.02772365
0.03134459 -0.00146270 0.00029866
0.02676408 0.01567445 -0.00439206
0.01248672 0.02937802 0.01280097
0.02638690 -0.00931574 -0.00364527
-0.00313920 -0.04882721 -0.00999011
0.02157664 -0.00752253 -0.01726531
-0.00806214 0.00740488 -0.03114926
-0.00569710 -0.01599919 -0.02845563
-0.02738638 0.00455894 -0.01308351
0.02719955 0.00857503 -0.01211539
-0.00085149 0.00265572 -0.02864927
-0.01228795 0.00664945 -0.02830514
0.01800503 0.02178033 -0.01357079
0.01107531 -0.02786092 -0.00382951
0.00020180 0.02962425 0.00123849
0.01773349 -0.00982036 -0.02114146
0.02835469 -0.01113800 0.01611405
0.02823136 -0.00663552 0.00908098
-0.02565171 -0.01331895 -0.00860879
-0.00499942 0.02918356 0.01067293
0.02316742 0.01441032 -0.01533635
-0.01683213 0.01661248 -0.02158791
-0.00420511 -0.00448392 -0.02864927
-0.02632407 0.01006389 -0.00386528
0.00097683 0.00838374 -0.02864927
0.03098492 0.00529461 -0.00062409
0.02627542 0.01638634 0.01676081
-0.02515254 0.01936935 0.00157359
-0.00498583 -0.02817619 -0.00868237
-0.02626728 -0.00634405 -0.00676889
-0.01584094 -0.00569962 -0.02531016
0.01382022 -0.02482066 0.00937128
0.00487542 0.02838499 -0.00401466
-0.00485182 -0.03793860 -0.01014804
0.02216690 0.01973383 0.00849891
0.02791356 -0.00731911 -0.01011884
0.02441527 0.00536885 -0.01928746
-0.01720891 0.02026795 -0.01668962
0.02415031 -0.01047959 -0.01593598
0.01241019 -0.02481880 0.01465523
0.00209264 0.02576558 -0.01302818
-0.01347903 0.01864941 -0.02267149
0.02819180 -0.00085837 -0.00366935
-0.00532138 -0.02432076 -0.01758131
-0.02711016 0.00913814 -0.00141231
0.01250394 -0.02612502 -0.00800330
-0.00559651 -0.00962450 -0.03114926
-0.01034087 0.00874401 -0.02848857
0.02750787 0.01571978 -0.00061540
0.01480302 0.02581080 0.00330463
0.00856600 0.02859921 0.00647182
0.02809788 -0.00716347 0.00885585
-0.02470206 -0.00500981 -0.01201215
0.01244488 -0.01493799 -0.02600894
0.00014816 -0.03142799 -0.01442156
-0.01060346 0.03047711 0.00518434
0.02817817 0.01425664 -0.00097776
0.02715864 -0.01560269 0.00768684
0.02588460 -0.01226979 0.01114590
0.00191652 0.02981615 -0.00950995
-0.01088254 -0.02886189 0.00784821
0.01637110 0.02400626 -0.00237861
-0.02975166 -0.00829358 -0.00019566
-0.02054527 0.02458228 0.00421704
0.00496996 0.00561633 -0.03114926
-0.02864620 -0.00154751 -0.01020153
-0.02010151 -0.00482003 -0.02471734
0.00690746 0.02904141 0.00693423
-0.01552632 0.01626106 -0.02328770
-0.02223632 -0.01778059 -0.00967624
0.00793753 -0.02831665 0.01843098
0.00626331 -0.02740885 0.01147256
0.02140835 0.02001552 0.01236422
0.01621086 0.02487690 0.00270677
0.02905656 0.01253157 0.01245152
0.01653973 0.01189129 -0.02215059
0.01501698 -0.02402786 0.01063017
0.01577514 -0.02412417 -0.00871458
0.02110330 -0.02141304 -0.00442222
0.02999675 0.00907251 -0.00174592
0.02564691 -0.01794963 0.00599139
0.02605692 0.01805745 -0.00085027
0.00529309 -0.02917883 -0.00497985
-0.02719732 -0.01334519 0.01536785
-0.02358813 -0.00797229 -0.01822110
-0.02197754 -0.01256976 -0.01727179
0.01556132 0.01759244 -0.02223500
-0.02972456 0.00413095 -0.00624655
-0.01244329 0.02261125 -0.01835115
-0.00965592 0.02830923 -0.00905338
0.01346981 0.00647011 -0.03091892
0.02460995 -0.00909537 -0.01620117
0.00014815 -0.05205795 0.00218117
0.01034304 0.02731138 -0.00180293
-0.01427646 -0.02438770 0.00979785
-0.01562172 0.02214811 -0.00915000
0.02226684 -0.00639508 -0.01679039
0.02406278 -0.01527237 0.00059260
0.00464828 0.02748392 -0.01460637
0.00164839 0.01521284 -0.03090519
-0.00568141 0.02902073 0.01080570
0.02141572 -0.01489128 -0.00970591
0.02223474 -0.00189270 -0.01848168
-0.02379153 0.01103907 -0.01680917
0.02126977 -0.01870661 0.00008493
0.02049508 0.00005820 -0.02136024
0.02446264 0.00577549 -0.01363670
-0.02441473 0.00715299 -0.01234466
-0.00563794 -0.02228810 -0.01582117
0.02613914 -0.01236073 0.00589966
-0.01829741 -0.00276777 -0.02737162
0.00391051 -0.00350547 -0.03114926
-0.01540270 0.00908196 -0.02486317
0.02222705 0.01969344 0.00747389
-0.02106652 0.01351112 -0.01920991
0.02331351 0.01837752 0.00551004
0.02701080 -0.01008201 0.00228670
-0.02694535 -0.01492365 0.00057415
-0.01970150 -0.01897147 -0.00435600
0.03122134 -0.00441015 0.00230835
-0.01687296 -0.01774803 -0.01849554
-0.00031585 -0.03370896 -0.01523303
0.01738130 -0.02299970 -0.00877116
0.00014816 -0.03417294 -0.01119317
-0.02713589 -0.00621051 -0.01212388
-0.01730580 0.02686209 0.00164165
-0.02123361 0.01875042 -0.01268128
0.00979141 0.00060026 -0.03114926
0.03086286 -0.00377031 0.01357021
0.01899582 -0.01569166 -0.01872296
-0.02367155 0.01193802 -0.00998480
0.02731406 0.00108537 -0.00741032
-0.01416303 0.00280526 -0.02797553
-0.00356364 -0.03308012 0.00530395
-0.00948783 0.00836604 -0.03114926
0.01734872 0.01800456 -0.01461351
-0.00481897 -0.02645922 -0.00559771
-0.02199556 0.02278806 0.01235584
0.00564705 0.02112861 -0.02456212
-0.00491154 -0.02734905 0.01345988
-0.00228246 -0.03221408 0.00507189
0.03060908 0.00695511 -0.00114017
0.02009919 0.01326046 -0.01619655
-0.00653612 -0.01929425 -0.02024995
-0.02447694 0.02049148 0.00428949
-0.01583227 0.01971441 -0.01911997
0.02008319 -0.01863537 -0.00500656
0.00867666 0.02700791 0.01799990
-0.00456016 -0.04795474 -0.01068873
-0.02839493 -0.01172945 -0.00076187
-0.00221882 0.03129720 -0.00371514
0.02581984 0.01795933 0.01451647
-0.01961925 0.00114105 -0.02619283
-0.01080208 0.01839942 -0.02075639
0.00639908 -0.02695459 -0.00206079
-0.03009810 0.00148080 -0.00544103
-0.00404274 -0.01676631 -0.02443067
-0.00504634 0.03185400 0.00353185
0.01215399 -0.00199541 -0.02862340
0.01795234 0.02646681 0.01180681
-0.03078870 -0.00073388 -0.00191587
0.02621680 0.01816665 0.00094725
-0.00485182 -0.03725446 0.00768450
-0.00386734 -0.02124721 -0.02288584
-0.01329420 0.02525749 0.01651101
-0.01874296 -0.02379806 0.01399275
0.00040307 -0.02012241 -0.02488504
0.01571125 0.02661911 0.01797362
-0.02049443 -0.01560158 -0.01627713
-0.00058242 0.01036877 -0.02864927
0.00014816 -0.04026851 -0.01224467
-0.00184697 -0.02772724 -0.01116364
-0.01749113 -0.00578451 -0.02733570
0.02456989 0.02068671 0.00927494
0.00098467 -0.02729292 -0.00387315
-0.01504389 -0.02245095 -0.01323769
0.02867759 0.00412007 0.01215661
0.00144229 0.02219044 -0.02407707
-0.02702366 -0.00845146 0.01245399
-0.02361542 -0.01388756 0.01674095
0.02269653 0.02162558 -0.00329791
0.02292608 0.02257252 0.00911802
0.00231721 0.01210248 -0.02864927
0.01158749 0.02611491 0.01706716
0.00399082 0.01889772 -0.02760239
-0.02733110 0.00960858 0.00139210
-0.00353570 -0.00651788 -0.03114926
-0.02019917 0.01080349 -0.02242782
0.00525694 0.02422418 -0.01524558
-0.02378867 0.01672005 0.00055949
-0.00646594 -0.02942485 0.01454197
-0.01357493 0.02780548 -0.00505806
-0.01945029 -0.01889719 -0.01321863
0.02730273 -0.00185717 -0.01426666
0.03024175 -0.00215934 -0.00554829
-0.00861354 -0.02536861 0.01853696
0.02951388 0.00984009 -0.00313422
-0.01471257 -0.02361866 0.01339838
-0.02318975 0.01640574 -0.00361421
-0.00118161 -0.02737288 0.01561710
0.01526375 0.02614097 -0.00807435
0.00231479 -0.02541867 -0.01645831
0.00687556 0.02258980 -0.01744194
0.02784094 0.01379218 0.01608199
0.02790602 -0.00441908 -0.00298914
0.02774719 -0.00129751 0.01775354
-0.01515413 0.02787603 0.01297815
-0.02579782 -0.00064303 -0.01696574
-0.01408233 0.02794426 -0.00338899
0.01432019 0.00103640 -0.02813503
-0.01234034 -0.00851166 -0.02716028
0.01143068 0.02713991 -0.00000097
-0.00026392 -0.03794182 -0.00995777
-0.02556882 -0.01267853 0.00321283
0.00625853 -0.02747043 0.00136251
-0.01964776 -0.02064654 0.01972608
0.00014816 -0.03338715 0.00818141
0.00466171 0.01106417 -0.03114926
-0.02701615 0.01680469 0.00370874
0.02038880 0.01725919 -0.01053095
-0.02512506 -0.00841052 -0.01510100
0.01127246 -0.02695943 0.01915336
0.01422145 -0.01655289 -0.01839925
-0.01046544 0.01729228 -0.02234889
0.00342592 0.00952259 -0.03114926
-0.01775408 0.01751771 -0.01956174
0.00442416 0.01711273 -0.02930990
-0.02210994 0.01947398 0.00844200
-0.01145958 0.02585813 -0.00556322
-0.02680318 0.01536328 -0.00360247
0.02490902 0.01209387 -0.00716772
-0.02002090 0.02154554 0.00970145
-0.00511707 0.03167701 0.00131724
0.01955267 -0.02052106 0.01172471
-0.00319716 0.01059698 -0.03114926
0.02742526 0.01668249 0.00489500
-0.00357520 0.02957959 0.00782000
-0.02754095 -0.00824976 0.00518185
0.00880266 0.01929073 -0.02123103
-0.01675059 0.02446289 0.00601083
0.01119413 0.01516532 -0.02801767
0.02618524 0.00451083 -0.00995791
-0.02894900 0.00752815 -0.00699593
0.01011092 -0.02920056 0.00889988
-0.01728116 -0.01276028 -0.02328725
0.01360189 -0.00546609 -0.02775014
0.01144563 0.02508307 -0.01520073
-0.01146500 0.02663279 0.01450069
-0.00337710 -0.05051282 -0.00828880
0.01564209 0.02796593 0.01139241
-0.01085380 -0.02371110 -0.00848938
-0.01394519 0.01880206 -0.01736011
-0.02202395 -0.01813330 0.00618866
-0.02055588 -0.01800813 -0.00446473
0.02280763 0.01887783 0.00907426
-0.02560712 -0.00908214 0.01885645
-0.02162731 0.01958977 0.00067801
-0.01904718 0.01997613 -0.00744067
0.02599977 0.01496342 -0.00830835
-0.03119071 -0.00340564 0.00693967
0.00620791 -0.02731049 -0.00001155
0.03004709 0.01051961 0.00206003
0.00869450 0.02735980 -0.01270225
-0.02051896 -0.01885583 0.01374071
0.00370027 0.00151111 -0.02864927
-0.00504351 0.02956760 -0.00896710
-0.00860312 0.02846513 0.00813256
0.01353531 -0.02445939 0.01336441
0.02041767 0.02495605 0.00758019
0.01859928 0.02633586 0.00378851
0.02755374 -0.00750027 -0.00071441
-0.02590707 -0.01223847 0.00506630
0.02183634 0.02170966 0.01812521
0.02490081 0.01934662 0.01406665
-0.00946714 -0.01556309 -0.02719780
-0.01053806 0.01205717 -0.03044407
0.02049884 0.02331384 0.01714407
0.02017290 0.01971955 0.01813461
-0.02961898 0.00592378 0.01780075
0.00696071 -0.03009283 0.00784556
0.01630662 -0.01088696 -0.02602392
-0.00740259 0.02865433 0.00151884
0.00018821 0.02845593 0.01764636
-0.03093365 -0.00490107 0.00490014
0.02516597 0.01863969 0.01532394
-0.03094217 0.00384172 0.01226052
-0.00485183 -0.04405890 -0.01102573
-0.01450150 0.02701792 -0.00616809
-0.00006097 0.00313154 -0.02864927
0.00976424 -0.01581366 -0.02692842
-0.01603488 -0.02262977 -0.00199180
-0.02670901 -0.00002505 -0.00831144
-0.01630908 0.02591647 0.01851262
0.02366602 -0.02025243 0.00325236
0.02087614 0.00710204 -0.01943153
-0.02646994 0.00988807 0.01566055
-0.02582217 0.01264094 0.01976462
-0.00768690 0.02959379 0.01906818
-0.00903561 0.03093253 0.00860603
0.00985910 -0.01538654 -0.02339987
-0.02430046 0.00914231 -0.01121055
0.01555696 -0.01361944 -0.02033235
0.00025996 -0.01230568 -0.02851944
-0.02793908 0.00885599 -0.00912619
-0.02318222 0.01061569 -0.01813845
0.01137516 -0.02796504 -0.00266247
0.00978620 -0.02896683 0.01250209
-0.02293184 0.02190877 0.01148712
-0.02803171 0.01443609 0.00077807
0.02021348 0.01964589 0.01884719
-0.00421974 0.02893232 0.01975078
0.01129592 -0.02171307 -0.01306056
0.02901111 -0.00826192 0.01772413
-0.03109666 -0.00346262 0.00289584
-0.02872617 -0.00194572 0.00261868
0.02320985 -0.00947144 -0.01270720
-0.01531876 -0.02495119 -0.00652603
-0.00004166 0.02635543 -0.01764112
0.02085384 0.01748616 -0.00903828
0.02643851 0.01813427 0.00256614
-0.02121382 0.01644848 -0.00936503
-0.00005747 -0.04091556 -0.00916096
-0.00907431 0.03087251 0.00943262
-0.00143227 -0.02814420 0.01977002
-0.00834949 0.00785330 -0.03114926
-0.00045029 0.02607274 -0.01816183
0.01369406 0.01398996 -0.02717500
-0.02537052 0.01009283 -0.00741576
-0.02314252 0.02181473 0.00161995
-0.02128177 -0.02055177 -0.00563047
0.00943311 -0.02148185 -0.02028733
-0.01189517 0.01973336 -0.01806972
0.01371160 -0.01783579 -0.01720302
0.01729095 -0.01032018 -0.02544673
0.01226256 -0.02532961 0.01215744
-0.01293668 0.00482141 -0.03109540
-0.02684532 -0.00929393 -0.01047949
-0.02196605 0.01927675 -0.01034039
0.02181026 0.01901711 0.01479618
0.02610228 0.01878435 0.00662378
0.01502833 -0.02362185 0.01331396
-0.02318606 0.01886171 -0.00811043
0.00375549 -0.01278894 -0.03103671
-0.00079936 -0.03584765 0.01018658
0.02557362 0.01489824 0.00471270
0.01736909 -0.02569310 0.00898733
0.00239464 0.00864987 -0.02864927
-0.01730214 -0.00314238 -0.02831714
0.00381423 -0.02898809 -0.00665086
0.00270912 0.03198878 0.00104291
-0.00727065 0.03140031 0.00366815
-0.02438698 -0.01112700 -0.00707030
0.01336314 -0.02796379 0.00528148
0.00297199 -0.02950888 0.01710961
-0.02893425 -0.00004906 0.00688982
0.02585028 0.01875858 0.01073940
-0.02967929 -0.00481731 0.01724127
-0.01596919 0.00612292 -0.02558590
0.01532904 -0.00142628 -0.02734752
-0.02673855 0.01108551 0.01162236
-0.02328404 0.01888111 -0.00782673
0.00327890 0.02859556 -0.01246320
0.01023905 -0.02682420 0.01963799
-0.01192264 -0.02102555 -0.01349929
-0.00454277 -0.03165041 -0.01164352
0.02077366 -0.01549873 -0.01648538
-0.01910387 0.00892688 -0.02054654
-0.02091683 -0.01810060 0.01510278
0.01461044 -0.00958142 -0.02473658
-0.00948213 -0.01982633 -0.02240539
0.00589736 -0.00681407 -0.03114926
-0.00790090 0.01709887 -0.02415475
0.02460745 -0.00701131 -0.01164689
-0.01258340 0.02700739 -0.00928475
0.02456958 -0.00828616 -0.01685645
-0.02433184 0.01623103 0.00964257
0.02018506 0.01423674 -0.01500712
0.01604950 -0.02354228 0.00355645
-0.01959439 0.02362260 -0.00558370
0.01914049 0.02143908 0.01586852
0.01059201 0.01938369 -0.01991095
0.02068216 -0.01929534 0.01246261
0.02283196 0.01270715 -0.01168351
0.00106862 -0.02746981 -0.00293446
-0.01985954 0.01735012 -0.01087715
0.02476027 0.01228748 -0.00738750
0.02916383 -0.00164416 0.00671664
0.02653698 -0.00665751 -0.00650866
0.02359730 -0.01205484 -0.00876843
0.01982878 -0.02066871 0.00721978
0.02313645 0.01738284 -0.01155385
-0.02282811 0.00497935 -0.02139883
0.01600792 -0.02089254 -0.01522854
0.02150488 -0.00504418 -0.02319138
0.00059327 0.02275181 -0.02333728
-0.01414544 -0.02365053 0.01967699
0.02857801 0.00625302 0.00203672
-0.00602028 -0.02974690 -0.00109168
-0.00718676 -0.02942944 0.01348449
-0.00939087 0.02799744 -0.01026191
-0.02678823 0.00833076 -0.00427386
0.02836225 -0.01333838 0.00352122
-0.00185733 -0.03006883 -0.00233835
0.02517897 0.01533454 0.00206729
0.02433225 0.01653411 0.01065480
0.01942877 0.02254012 0.00484637
-0.00133033 0.00383037 -0.03114926
0.00637392 0.00304133 -0.02864927
-0.02130792 0.01049094 -0.01619378
-0.02099484 0.02042579 0.01060455
-0.01747411 -0.02235649 0.00409113
-0.01037702 -0.02635364 0.00843147
-0.03078158 0.00125376 0.01425010
-0.02737287 -0.00030504 0.01842482
0.00317786 0.02902185 0.01405700
0.00492964 -0.02472191 -0.01707392
0.00849194 -0.02658974 0.01976504
0.03100004 0.00748284 0.00465787
0.02543751 0.01329432 -0.00294251
-0.02033099 -0.01996849 0.00582235
0.00517428 0.02920371 0.01075017
-0.01151330 0.00566983 -0.02859583
-0.01207856 0.02470504 -0.01505872
0.01583888 -0.02547861 0.01632412
-0.01722890 0.01118130 -0.02561306
-0.02549414 0.00663638 -0.00994686
0.02694442 0.01581080 -0.00322713
-0.01924254 0.02544503 0.01056312
0.01858326 0.02302022 0.01048466
-0.02337726 -0.01323218 -0.00666879
-0.00280707 -0.04534440 -0.00760561
-0.01734112 0.01560201 -0.02206712
-0.02346435 0.02150718 0.00184746
-0.01948430 0.01528987 -0.01444573
0.00194643 0.02207096 -0.01986891
-0.00476397 0.00085830 -0.02864927
-0.02868725 0.00855012 -0.00699336
-0.02573698 -0.00093352 -0.01099190
-0.02847877 -0.00239890 -0.01048946
0.02829687 -0.01347532 0.00358005
0.01647954 0.00342313 -0.02969775
0.01936135 0.02308956 0.01957723
0.00966838 0.03028411 -0.00157510
0.01289459 -0.02820524 0.00576173
-0.00290376 0.00636852 -0.02864927
0.02874174 0.00180909 -0.00074591
-0.01154866 -0.01323028 -0.02417333
-0.02536032 0.01451394 0.00272579
0.00089943 0.03157917 0.01479189
-0.02824750 0.00952208 -0.00759111
-0.00279293 -0.02457999 -0.01204687
-0.02428422 0.00225292 -0.01965433
-0.02672375 0.00679395 -0.00593901
0.01534075 0.02308465 -0.00790270
-0.00269350 -0.02969787 -0.00413967
0.02065814 -0.01438506 -0.01207061
0.01403614 0.02847072 -0.00163828
0.00291662 -0.00977286 -0.02864927
0.00431318 -0.02521845 -0.01001938
0.02613436 -0.01604056 0.01429205
-0.00464474 -0.00242878 -0.03114926
-0.01207515 -0.02479865 0.01488500
-0.00650407 0.02496690 -0.01298127
0.02050681 -0.01981721 0.00173248
0.00936493 -0.00693904 -0.02864837
0.01276326 0.00609720 -0.02832945
0.01520791 0.02561376 0.00831338
0.01210944 0.01941346 -0.02314018
0.02106629 -0.02150469 0.01642503
0.01634237 -0.01016875 -0.02649112
-0.02892743 -0.00074633 0.00519268
0.01994574 0.00487408 -0.02155707
-0.00431891 -0.00520763 -0.02864927
-0.01548629 0.01589145 -0.02367185
0.01388413 -0.02474240 0.00207642
0.02815489 -0.01197059 -0.00314229
-0.01991323 -0.01385980 -0.01911309
-0.01181748 0.02692164 0.01191728
0.01379946 0.02890615 0.01168944
-0.00105081 0.02943539 0.01222444
-0.01822119 -0.02478828 0.00202382
0.01330843 0.02522187 0.01719416
0.02842179 -0.00563135 0.00944784
-0.01756026 -0.00489021 -0.02370112
0.02807283 0.00785553 -0.01048134
-0.00602107 -0.02443343 -0.01707578
0.01100314 0.00879328 -0.03111021
0.00001106 -0.02004560 -0.02498602
0.01740326 -0.02512129 0.01326146
0.00734102 -0.02472451 -0.00952286
-0.00414348 -0.03805569 -0.00992725
0.00936610 -0.02161185 -0.01493828
-0.02966015 -0.00160795 -0.00686889
-0.02777888 -0.01350109 0.01123307
0.02872929 0.00677317 -0.00916479
-0.01907751 0.02161955 -0.00214913
0.01883117 0.01110080 -0.01991291
0.03078147 -0.00206048 0.01541565
0.00314644 -0.03051369 0.01053166
0.01875095 0.01319531 -0.02285156
0.00749369 -0.02985734 0.00208308
0.02437885 -0.01952887 0.00702600
0.01132152 -0.01567338 -0.02608434
0.01543173 -0.02360806 -0.01063780
0.01872105 0.01177435 -0.02389701
-0.02945338 -0.00319929 0.01916032
-0.00172762 -0.05266885 0.00240957
0.01368872 0.02222463 -0.01228861
-0.01314048 -0.02210000 -0.00965945
0.00998921 0.00723776 -0.03114926
0.01135240 -0.02537308 -0.00194805
0.01500227 0.00992937 -0.02873396
0.00539647 0.02826572 0.01951677
-0.00488565 0.00260221 -0.03114926
-0.00946631 0.00664870 -0.02864927
0.02238727 -0.00832317 -0.01526924
-0.01193451 -0.00193029 -0.02861767
-0.02563030 -0.00004035 -0.01133964
-0.02266219 0.02263109 0.00626598
0.02217229 0.01908457 -0.00054389
0.01947509 0.01565907 -0.01976535
0.02582966 0.01228473 -0.01218185
-0.02745682 0.00900064 0.01147497
0.02156169 0.01757717 -0.01437194
0.02711528 0.01359981 -0.00699363
-0.00863599 0.01215713 -0.02801371
-0.02858056 0.00553955 0.00511218
-0.01767743 0.02677840 0.00348271
-0.00198998 0.03184391 -0.00054911
-0.02177630 -0.02156933 0.00026029
-0.02228841 0.01710187 0.01738775
0.00236788 -0.02829358 0.00578315
-0.00079480 0.02405057 -0.02146456
0.01195553 -0.02747237 0.01627437
-0.02053698 0.00987066 -0.01787131
0.02002606 -0.02035465 0.00275447
0.00156648 -0.02113730 -0.02347421
0.01679362 -0.01091631 -0.02143692
0.01489507 0.02052367 -0.01936167
-0.02740749 0.00225015 0.01812128
0.02166804 0.01791577 0.01853148
-0.00919589 -0.02549418 0.01937705
0.02683371 0.01125395 -0.00022720
-0.01483013 0.02012435 -0.01432012
0.01420146 -0.01349817 -0.02188620
-0.02762443 -0.00066822 0.01718319
-0.01074847 -0.02577516 -0.00026347
-0.00629428 0.01782235 -0.02412942
0.01780611 -0.00536827 -0.02358089
-0.00900523 -0.02733787 0.01952818
-0.00386949 0.02870004 -0.00287101
0.02903445 0.00362947 0.00907293
-0.02755136 -0.00178825 -0.00499783
0.00937314 0.02098032 -0.02302964
-0.02268811 0.01647526 -0.00530553
-0.02869168 -0.01218747 0.00536878
-0.02025852 -0.01209988 -0.01507821
0.02459244 -0.01880105 0.00043538
-0.00721137 -0.02966591 0.01174822
-0.01501342 0.02817123 0.01130056
0.01842655 -0.02494147 0.00328051
-0.01254692 0.00116025 -0.02859195
-0.00513858 -0.02863657 -0.00712485
0.00180100 0.01851899 -0.02833246
-0.00360389 -0.03468114 0.00573293
-0.01603892 0.02418487 0.01382600
-0.02339929 0.01558767 -0.00484107
0.03048242 -0.00505065 -0.00235329
-0.00551303 0.03186621 0.00556469
-0.00537483 0.00352035 -0.02864927
0.02548060 0.00519175 -0.01155964
-0.00839767 -0.02439152 -0.00926009
-0.01682245 -0.02232578 0.01274553
-0.02675144 0.00541486 -0.00694113
0.01051597 -0.02645033 0.00668277
0.00595640 0.03139909 -0.00028747
-0.02327300 0.01744621 0.00036873
-0.00548331 0.00266662 -0.03114926
-0.01608219 -0.02505196 0.01664333
-0.00083999 0.03234204 0.00676872
-0.01524047 0.01898290 -0.02063067
-0.00677563 -0.01967647 -0.02394943
0.01670647 0.02607063 0.01765745
0.00020721 0.01470562 -0.02822408
0.02599894 -0.01564224 0.01611400
0.02592478 -0.01260042 0.00353476
-0.01197950 -0.02535994 -0.01055338
-0.02483207 0.01527975 -0.01017825
-0.02466488 0.01495398 -0.00109404
0.03164190 0.00342921 0.00474061
-0.00488299 0.00127507 -0.02864927
-0.02651984 -0.00453742 -0.00731839
0.01441649 0.00771951 -0.02679015
-0.01690137 -0.02322220 -0.00856168
-0.02588519 0.01279349 -0.01076427
0.01133976 0.03003006 0.01108579
-0.02825430 -0.00069831 -0.01143447
0.00897374 -0.02270521 -0.01863514
0.03157625 -0.00269694 0.00620594
-0.00772854 0.03137435 0.00567514
0.02813200 -0.01344211 0.00135682
0.02595401 0.01116041 -0.01297292
0.00557375 -0.01540461 -0.02551877
0.02845021 -0.00148617 0.01442946
0.01516531 -0.02409512 0.00338756
0.01675635 0.01956039 -0.01858382
0.02255874 0.01697564 0.01775777
0.02083022 0.01593734 -0.01165380
0.00210463 -0.03081306 0.00498448
0.00605264 0.00961618 -0.02864927
-0.02561345 0.00555563 -0.01029253
-0.02439094 0.00064982 -0.01955044
-0.00954188 0.02787228 0.00067521
-0.02475810 0.01813854 -0.00492813
-0.00057927 -0.03049173 -0.01609508
0.02414598 -0.00536250 -0.01920528
-0.00555300 -0.00883556 -0.02864927
0.00823438 -0.02628673 -0.00301709
0.00331537 -0.01999735 -0.02045839
-0.01240395 0.02122194 -0.02037247
-0.02161861 -0.00718484 -0.01695525
0.00331400 0.03156058 0.01395011
-0.00465517 -0.04146721 0.01114910
0.02946200 -0.00478250 -0.00719181
0.02384032 -0.00376243 -0.02022103
-0.02073837 -0.01319179 -0.01297515
0.01117141 -0.02875782 0.00253841
-0.01427280 0.02600812 0.00820463
-0.02671496 -0.01561731 0.01022121
-0.01518417 -0.02690749 0.00543333
-0.02697910 0.00060237 -0.01456614
0.01096382 0.01621847 -0.02724876
-0.00773170 -0.02960608 0.00112081
0.01799470 0.02542473 -0.00459519
-0.00160677 0.01273843 -0.02863779
0.01173188 -0.02592733 0.00775765
-0.00127280 0.01940428 -0.02743600
-0.00813509 -0.02940974 0.01216275
0.02684822 0.00505529 -0.00781393
0.00323965 -0.02083946 -0.02363934
0.01184746 0.02871105 -0.00525980
-0.02291791 -0.00849307 -0.01904812
0.02779787 0.00848280 -0.00005479
0.00851600 -0.02911682 -0.00156956
-0.00726822 0.02460451 -0.01876701
-0.01435724 0.02598102 0.00460896
0.00463992 -0.02400358 -0.01290255
-0.00844122 -0.02899198 -0.00200995
0.00215535 0.02854721 0.01686040
-0.01655294 0.02694969 -0.00121056
-0.02701881 0.00878413 0.01472170
0.02734373 0.00657610 -0.01300955
0.00490581 -0.02489455 -0.01677276
0.02101567 -0.01252054 -0.01924540
-0.02470679 -0.01123153 0.01892985
-0.01881945 0.02081440 -0.00568629
-0.03124770 -0.00235689 0.00870570
0.01240842 -0.00849844 -0.03055321
0.02557847 0.01798952 0.01562692
0.00538924 -0.02573291 -0.00795986
-0.01475387 -0.01429325 -0.02449939
-0.01603919 0.02475367 0.00199891
-0.02812801 -0.00600799 0.00820317
0.02080419 -0.01303703 -0.01363837
-0.02497501 -0.01346206 0.00116100
-0.00328616 -0.02664724 -0.01712522
0.00014815 -0.05064369 0.00027982
-0.02842966 0.01412515 0.00391767
0.02094272 -0.00730200 -0.02294889
0.00921052 -0.01270223 -0.02995782
-0.01803148 0.02634927 0.00147423
0.01638812 0.02687256 0.01539236
-0.01969870 0.01868634 -0.00863989
0.01360789 0.02561485 0.01504650
0.02296612 0.01644481 0.01912857
-0.01085154 0.02606864 0.01892916
-0.01646820 0.00128430 -0.02961851
-0.00903752 0.00748323 -0.02864927
0.00774371 0.00978865 -0.02864927
0.00628992 0.01482281 -0.03056355
0.00418149 0.03148414 0.01385843
0.02824818 -0.00694807 0.00548028
0.02121575 0.01948896 -0.00310217
0.02707850 -0.00964270 0.00125107
0.01599241 0.02512977 0.00751186
0.00617563 -0.02727419 0.01258291
-0.02411792 -0.01886851 0.01255912
0.01364647 0.02646885 0.00399046
0.01943194 0.02223914 0.01071375
-0.01108605 0.01362146 -0.02912677
-0.00939045 0.00902634 -0.03114926
-0.01637967 -0.01106340 -0.02555878
0.00862140 -0.02658345 -0.00075556
-0.00757129 0.02884404 -0.00945381
-0.01916789 -0.02427230 0.00643766
0.02866946 -0.00102096 0.01315152
0.01117578 0.02686429 0.01456631
-0.00019445 -0.00869227 -0.02864927
-0.01233147 0.02620504 0.01460090
0.00956726 0.01669919 -0.02378524
0.00014816 -0.04004370 0.01067422
0.02618055 0.00258201 -0.01059995
0.02671908 0.01259174 -0.00961987
0.02253204 0.02225083 -0.00148630
0.02504109 0.01993033 0.00175473
-0.02345125 0.00802063 -0.01932163
-0.02048065 -0.01977743 0.00781813
0.02527374 0.01989148 0.00735950
0.00826318 -0.02283924 -0.01885772
0.01900814 0.00878980 -0.02114890
-0.02616489 0.01679759 -0.00279391
-0.00743474 0.01607030 -0.02545620
-0.02532403 0.01431658 0.00129370
0.01573331 0.00330491 -0.03028963
-0.01629723 0.02771254 0.00472808
-0.03051196 0.00840742 0.00655352
-0.00679393 -0.01615461 -0.02409544
-0.01925874 -0.00103487 -0.02258199
-0.02778873 0.00753634 0.00033822
0.00982314 -0.02935456 0.00501279
-0.01586972 0.02794700 0.00852187
-0.02839691 -0.00340871 0.01977599
0.00444133 0.02607285 -0.01161835
-0.00485182 -0.03148633 -0.01572478
-0.01337770 -0.00798328 -0.03008107
-0.02138896 0.02277288 0.01517998
-0.00586109 -0.01810081 -0.02219537
-0.02116427 -0.01511257 -0.00920455
-0.02030291 0.01883608 -0.01421128
-0.01316079 0.02597991 -0.01116180
-0.02145225 -0.01179943 -0.01878815
0.01579828 -0.02018554 -0.01046809
0.02399118 -0.01452011 -0.00250335
-0.02290364 -0.01540588 -0.00349580
0.02857427 -0.00504457 0.00313349
-0.00810925 -0.02395973 -0.01682683
0.00519620 -0.02403015 -0.01822215
-0.02493687 -0.00289355 -0.01239781
-0.00965536 0.02944166 0.01738744
0.00048656 -0.02541975 -0.01040318
-0.03147262 0.00133509 0.00572747
-0.00485182 -0.03597869 0.00645060
0.02593741 0.01069883 0.01786877
-0.01907347 0.00653541 -0.02177322
0.02395124 0.01949186 0.01752591
0.01487028 0.01152569 -0.02412955
-0.01876238 -0.01952709 -0.01325461
0.01716198 0.01837469 -0.01432117
0.00014816 -0.04693054 -0.01081233
0.02231673 0.01291599 -0.01254513
0.02456119 0.01187891 -0.01523173
-0.00485182 -0.03590260 -0.01277763
-0.00085893 0.02166445 -0.02050902
0.00207315 -0.02546900 -0.01005455
-0.02675136 -0.00639413 -0.01296770
-0.03025107 0.00897316 0.00956637
0.00943449 -0.01853158 -0.01986540
0.00429345 -0.02799661 0.00882580
-0.00171765 0.03131560 0.01600135
-0.02734857 0.01124783 -0.00848963
0.02879550 -0.00338515 -0.01002952
-0.00565300 -0.02537905 -0.00861994
-0.02871538 -0.00012542 0.01072582
-0.02486447 0.00649915 -0.01753714
0.01190702 0.03008725 0.00661587
0.00510710 -0.02696068 0.01572988
0.02671792 0.01788590 0.00641025
-0.00815835 -0.02643520 0.01972868
-0.02622842 0.00969301 -0.01291022
-0.01034226 -0.02595528 -0.00017329
0.02890449 0.01255651 -0.00114814
0.00753984 -0.01765336 -0.02612917
-0.01286195 -0.01457734 -0.02175410
0.02544660 0.01195609 0.01910412
-0.01871318 -0.02287622 0.01784162
0.00704110 -0.02825340 -0.00733195
0.00709736 0.03111601 -0.00085869
-0.00481695 -0.02448265 -0.01752871
0.00975095 0.02375024 -0.01890170
-0.02711491 0.01662132 0.00366336
0.00996101 -0.02545192 0.01647545
0.01699415 0.00799285 -0.02401064
-0.02895251 0.00785590 -0.00664512
-0.02187841 -0.01771443 0.01978063
-0.00019828 -0.03354186 -0.01113672
0.02388852 -0.01073264 -0.00980519
-0.00947821 -0.02468765 -0.00731314
-0.00101861 -0.01103835 -0.03114926
-0.02860886 0.00017854 0.01197367
-0.01325486 -0.02508718 0.00611479
-0.03093980 -0.00438199 0.00286174
0.02823111 -0.01004510 -0.00611577
0.02030260 0.02004934 -0.00458940
-0.02195102 -0.01569618 -0.00595009
-0.00891692 -0.02955427 0.00564732
-0.00469524 -0.02955463 -0.01634618
-0.00545963 0.03177057 0.00297084
-0.00211464 -0.02793705 0.00041117
0.02488879 -0.01451468 0.00427581
0.02528895 0.00003405 -0.01846608
0.01213130 0.00587535 -0.03114722
-0.02362544 -0.01312136 0.01851169
0.00009286 0.03234031 0.00712733
-0.01325990 0.01448745 -0.02688553
0.00257922 0.02168569 -0.02031234
0.00651418 0.02472491 -0.01908625
0.02248113 -0.01428775 -0.00817212
0.00044299 0.03200112 0.01209885
-0.01633699 -0.01112042 -0.02556353
0.00508551 0.02940454 0.00856934
0.01754963 -0.02179072 0.01378840
0.02076108 -0.02271424 0.01246686
-0.00734665 -0.02178594 -0.02079722
-0.00584048 0.02868923 -0.00103175
-0.01705987 -0.02221092 -0.00012928
0.01437011 0.01498743 -0.02172148
-0.01551193 -0.02661764 0.00277342
0.02510005 -0.01852373 0.00298173
0.01228145 0.02720235 0.00705553
-0.01874849 0.02084142 -0.00579216
0.01643322 -0.02627147 0.00366809
-0.00260726 0.02662190 -0.01690974
-0.01322142 0.02552895 -0.01212121
-0.01971261 0.00344901 -0.02587661
-0.01950370 0.01327514 -0.02149004
-0.00042040 0.00706114 -0.02864927
0.02386848 0.00169788 -0.02080476
0.00874151 0.03011459 -0.00395738
0.00409146 0.00038151 -0.02864927
0.01816721 -0.02447510 0.01385319
-0.01138856 -0.00113188 -0.02864927
-0.00504562 -0.02664263 -0.00473550
-0.01818746 0.02333904 0.00702598
-0.02931351 0.00025012 0.01956459
-0.00596380 0.02913586 0.00381009
-0.00846833 0.02362067 -0.01444190
0.01050139 -0.02179741 -0.01372856
-0.00485183 -0.04983839 -0.00794733
0.03004665 0.01060806 0.00975254
0.02976767 0.01032477 0.01303388
0.02957240 -0.01078040 0.00661724
-0.00189467 -0.02290703 -0.01586270
-0.02748064 0.00805413 -0.01103456
0.00014816 -0.03964753 0.01003695
-0.02664764 -0.00207890 -0.00810558
-0.02568491 0.00353270 -0.01695733
0.00900753 0.02808429 0.01207883
0.00700462 0.03151508 0.00291689
-0.01689988 -0.01233708 -0.01971648
0.00689863 0.01770412 -0.02411855
-0.00113062 0.00946467 -0.03114926
0.02451464 -0.00991446 -0.01574358
0.01593391 -0.01222176 -0.02541452
-0.01955859 -0.02343055 0.01273933
-0.01147117 -0.02480041 -0.00387487
-0.00866588 0.03093212 0.01018175
-0.00343317 0.02687526 -0.00975685
-0.02853621 0.01235781 0.01426207
0.00226674 -0.03082465 0.00596166
-0.01849549 -0.02026233 0.01591921
-0.02457031 -0.01457058 0.00766866
0.02361395 0.00407406 -0.02086975
0.02577011 0.01634691 0.01877658
0.01786250 -0.02027669 -0.01378858
-0.00194513 0.00623803 -0.02864927
0.01069358 0.00795378 -0.03114926
0.02188135 -0.01777984 0.01336105
0.01646689 0.00336321 -0.02971959
0.02702917 -0.00382689 -0.01431491
-0.01848619 -0.01180965 -0.01810999
-0.03116369 -0.00332939 0.00842182
0.01550264 0.02471493 -0.00169641
0.03044493 0.00592281 0.01561660
-0.01949521 -0.02000270 -0.00111653
0.00410195 -0.02794515 0.00227965
-0.00485183 -0.04396959 -0.01231941
0.02679893 -0.00844419 0.01546549
-0.01762173 -0.02426262 0.01583231
0.01354033 -0.02096169 -0.01783479
0.02789747 -0.01351196 -0.00033405
-0.01837947 -0.02169102 0.00453509
0.02657806 0.01796066 0.00331112
-0.00727923 -0.01790367 -0.02177573
0.02121645 0.00905474 -0.01780075
-0.01342334 0.01060193 -0.02946696
0.01560692 0.02658640 -0.00600946
0.00391997 0.02814445 0.01909699
0.01521518 -0.02351631 0.01976321
0.01150974 0.02961607 0.01368142
0.03114686 -0.00442418 0.00162704
0.02101872 -0.01793295 -0.00409009
0.01168736 -0.02415144 -0.00641894
0.00014815 -0.05050610 -0.00658827
0.00248536 0.01170760 -0.02864927
0.03082833 0.00823294 0.00435370
-0.00329883 -0.01734879 -0.02391796
0.00992963 0.00736543 -0.02864927
-0.01342079 -0.02580081 0.01922056
-0.03043418 -0.00228499 0.01550797
0.00005803 0.02826867 0.01860913
0.00176734 -0.02756322 0.01456147
-0.01157398 0.00433567 -0.02862839
0.02877874 0.01395764 0.00316389
-0.00049516 0.02003103 -0.02280520
0.02699461 0.01732417 0.00845638
-0.01957574 -0.01599955 -0.01118128
0.00791605 0.03099084 -0.00008816
-0.02481667 0.01494138 -0.01067957
-0.00900968 0.02659202 -0.01395440
-0.02580928 -0.00657385 -0.01492116
-0.03018613 0.00860798 0.01122279
0.00014816 -0.04232419 0.00813021
-0.00068899 -0.02823118 0.00942930
-0.02791997 -0.00594594 0.01099495
0.00681366 0.02622706 -0.00991425
-0.02288577 -0.01984760 -0.00228825
-0.01281872 -0.02797882 0.00277733
-0.02365664 -0.01427235 -0.01217197
0.00566611 0.02887005 0.01262764
-0.02768338 -0.00469653 0.01457639
-0.00758665 0.02825565 -0.01109693
-0.01185371 0.01703445 -0.02154604
0.00467729 -0.02468497 -0.01722633
0.02674501 0.01564020 -0.00453273
-0.02061117 -0.01964720 0.00732221
-0.01225565 0.00758634 -0.02813724
0.02564081 -0.00221766 -0.01164294
-0.02006310 -0.02015057 0.00418611
0.02020565 0.01227996 -0.02175769
-0.00792203 -0.02323441 -0.01251497
-0.02426015 0.01657358 0.00476210
0.02426237 0.00405983 -0.01986348
0.00777104 -0.01790452 -0.02166590
0.00886425 -0.02572167 0.01689707
0.02444103 0.01970499 0.01507569
0.01930150 0.01898373 -0.01606043
-0.01214243 0.01041475 -0.02705974
0.02893111 0.00487431 0.00771192
-0.00043996 0.03231679 0.00399913
0.01351156 0.01592403 -0.02156093
0.00232605 -0.01950034 -0.02136182
0.02435831 0.00406072 -0.01443381
0.02008963 -0.01090375 -0.01706888
0.00077293 0.02978834 0.00385187
-0.00485183 -0.05055992 0.00142403
-0.01897894 -0.02437314 0.00771595
0.00064454 -0.00285766 -0.03114926
0.00649861 0.02891962 -0.01026441
0.01011096 -0.01622901 -0.02233602
0.02687041 0.01680864 -0.00048390
0.01345799 0.01385306 -0.02359379
0.01620265 -0.01041049 -0.02250542
0.01727760 0.01551835 -0.02250852
0.01113956 -0.02713235 -0.00662261
0.01444909 0.01170081 -0.02816604
-0.01661850 0.00692841 -0.02831899
0.00516311 -0.02411336 -0.01808438
-0.01424799 -0.02457043 0.00610239
0.00734218 0.02434384 -0.01934955
0.03128463 0.00501719 0.01025653
0.00359599 0.02703661 -0.00933731
0.00149818 0.03180865 0.01327832
-0.02093123 0.02392981 0.00098847
-0.02105780 -0.00880448 -0.02156184
0.02978803 0.00061275 -0.00785700
0.01505055 -0.02615590 -0.00309420
0.02873492 -0.01259656 0.00899574
-0.00038534 0.01925543 -0.02378577
-0.00320545 -0.02931275 -0.00552801
-0.02874490 -0.01209770 0.00567525
-0.01980653 -0.01109989 -0.01687175
0.02249573 0.00847008 -0.02098181
0.00376104 -0.02100041 -0.02330195
0.00955355 0.01640706 -0.02410438
0.02937375 0.01260841 0.00888790
0.00876221 0.01947934 -0.02100111
0.00369190 -0.02479969 -0.01732310
-0.01434182 0.02098251 -0.01895506
0.01706374 -0.00511813 -0.02456595
-0.00045406 -0.02806282 0.00084873
-0.00297397 -0.00262328 -0.02864927
