# .PCD v0.7 - Point Cloud Data file format
VERSION 0.7
FIELDS x y z
SIZE 4 4 4
TYPE F F F
COUNT 1 1 1
WIDTH 1000
HEIGHT 1
VIEWPOINT 0 0 0 1 0 0 0
POINTS 1000
DATA ascii
0.00429292 0.01531538 -0.01689277
-0.00819491 -0.01308462 -0.02161774
-0.00285410 -0.01647879 -0.00862057
0.00588443 0.01371081 0.01054652
0.00112179 -0.01105113 -0.01392745
0.01115223 0.00406971 -0.00900250
-0.00224589 0.01295550 -0.00081150
-0.00746082 0.01425824 -0.01506732
0.00698124 -0.01685090 0.00656885
0.00226687 -0.01373380 0.00412029
-0.00894105 0.00796372 -0.00836523
-0.01101663 -0.01323558 -0.00374987
-0.00669892 0.01810327 0.01726750
-0.01319426 -0.01426378 0.01848501
-0.00956774 0.01272867 0.01699490
-0.00886289 0.00220858 -0.01972785
0.01464349 0.00683719 0.01851354
-0.01789478 -0.00704055 0.01629504
0.01507243 -0.00958606 0.00283430
0.00829210 0.01013623 -0.00118408
0.00384130 -0.01457339 0.01150016
0.01116502 -0.01647901 0.02297389
-0.00004039 -0.00377503 -0.02610379
-0.00259626 -0.01210253 -0.02609518
0.00710459 -0.01216753 0.00519907
-0.01236212 0.01509530 0.01927535
-0.01374946 0.00512502 0.00896251
0.01143368 -0.00193854 -0.01082912
-0.01564011 -0.00383792 -0.01491610
-0.01027345 -0.00362341 -0.01527382
0.01294207 -0.00600376 0.00636438
-0.00741871 0.01046645 -0.00288581
-0.00719327 -0.01038817 -0.00412319
-0.00537908 -0.01783316 0.01045054
-0.01073865 0.01302448 -0.00715457
-0.01308609 -0.01026179 0.02153439
0.01523287 0.00683846 -0.00909648
0.00068525 -0.01622808 0.01913422
-0.00759664 0.01795489 0.01900556
-0.00304508 0.01592564 -0.01386322
0.00273288 0.01579937 -0.01570279
0.01247507 -0.00031651 -0.00510366
-0.00808660 -0.00836526 -0.01054987
0.01290208 -0.00730559 0.00996877
0.00137607 -0.00111422 -0.02610379
-0.01982427 -0.00131288 0.02286560
-0.01338820 -0.00370655 0.00392265
0.00720138 0.00628941 -0.01926134
0.01305726 0.00923008 -0.01612866
0.00883092 -0.01644185 0.01062711
0.00555301 -0.01693348 0.00235342
-0.00730022 -0.01373093 0.01466016
0.00772433 0.01191633 0.00598719
-0.00819120 -0.01406383 -0.01322785
0.01484923 -0.00288139 0.01190871
0.01883418 0.00095520 0.01270755
0.01436023 0.00467094 0.01176050
-0.01346636 0.00847084 -0.01700477
0.01685559 0.00508876 0.00017124
0.00718586 -0.00893037 -0.01168548
0.00494467 -0.01274157 -0.02575738
0.00427786 0.01169378 -0.00533875
0.01619970 0.00682606 -0.00003694
0.00870851 0.01443592 0.02265813
-0.00332541 0.01100834 -0.01139674
0.00179789 0.01781871 0.00326737
0.01277041 0.01252481 0.00293180
0.01413642 0.01351687 0.01976895
-0.01095566 -0.00848240 -0.02564618
-0.00229621 -0.00912837 -0.01944516
-0.00955614 0.01129787 0.00975307
0.00538123 -0.00946172 -0.02610379
0.01061299 0.00654168 -0.00514152
0.01786174 -0.00878892 0.02329624
-0.00612702 -0.01666284 0.00143473
-0.00389863 -0.01614886 -0.00997529
0.01715498 0.00778910 0.02389615
0.01276822 0.00950528 0.01696206
-0.00782746 -0.01461315 0.02127189
0.00048013 0.01414198 0.00565933
0.01509681 -0.00349946 -0.02094689
0.01581575 0.01188027 0.02199611
-0.00249408 -0.01895594 0.01519959
-0.00301142 -0.01572790 -0.01574887
0.00496335 -0.01795797 0.01046826
0.00883418 0.01243925 0.01272254
0.01204892 -0.00090686 -0.00768384
-0.01259581 0.00914499 -0.02031557
0.01486173 -0.00592820 -0.01609181
-0.00786881 -0.01270979 -0.02444432
0.01602246 -0.00558390 -0.00624332
-0.00121188 0.01672575 -0.00837894
-0.01031690 -0.00249937 -0.01701896
-0.01177837 0.01530592 0.01704777
0.01803785 -0.00776020 0.02044159
0.01639989 0.00335361 0.02227227
-0.01281281 0.00007657 -0.00299964
-0.00384903 -0.01859630 0.01406746
-0.01340899 -0.00893628 0.01828757
0.01653410 -0.00080866 0.02112821
-0.01493979 0.01086025 0.00891936
0.00937616 -0.01457664 -0.00271402
0.00691529 -0.01226522 0.00516183
-0.01605580 -0.00061615 -0.01540353
0.00894353 0.00594831 -0.01622299
-0.00299463 -0.00798701 -0.02610379
0.00132858 -0.01504061 0.01170310
-0.00307675 0.01726536 -0.00071756
0.00367362 -0.01902434 0.01795353
0.00114642 0.01872450 0.01150044
-0.00946902 0.00042090 -0.02610379
0.00670599 -0.01513153 0.02103548
0.00327584 0.01627201 -0.01002704
0.00272537 0.00349865 -0.02110379
0.00234616 0.01042611 -0.01665254
0.00254728 -0.01839390 0.00970946
-0.01742309 0.00253074 0.00026429
0.01317941 0.01290839 0.00854874
0.00474855 -0.01412242 0.01046523
-0.00189959 -0.00146879 -0.02610379
0.01241690 0.01112217 -0.00922198
-0.00593988 0.01221640 0.00196308
-0.00330871 0.01729006 0.00004291
0.00555510 -0.01532741 -0.01306904
0.00480155 -0.01889202 0.01894373
0.01376476 -0.00920283 -0.01029219
-0.01585067 0.00170473 -0.01666238
0.00231620 -0.01261925 -0.00285375
0.01455813 0.00586786 0.01553169
0.01080362 0.00533102 -0.00784386
-0.01504507 0.01006090 0.00505797
-0.00113290 -0.01830194 0.00758632
-0.00801094 0.01398914 0.01825919
-0.00534997 0.01582185 -0.00886190
-0.00835835 0.00985794 -0.00228522
0.01361722 -0.00223194 0.00333472
-0.01603865 0.00534153 0.02277552
0.01073578 0.01534961 0.01151358
0.00091156 -0.00136823 -0.02110379
0.01166973 -0.01455916 0.01069617
-0.01941544 -0.00226448 0.01961566
0.01224694 0.01191803 -0.00504750
0.01599051 0.00281817 0.01899136
0.01635687 -0.00963813 0.01399313
0.01616404 0.00681686 -0.00040617
-0.01407994 -0.00860351 -0.01102239
-0.01478095 0.00075033 0.00984169
-0.01319110 -0.00812459 -0.02116612
-0.01124706 -0.00321437 -0.01018439
-0.01600351 -0.00300064 0.01932621
-0.00620252 0.01591210 0.02306583
0.01230823 0.01500558 0.01825919
0.00951699 -0.01540626 0.02380522
0.01762078 -0.00091025 0.00041710
0.00490744 0.00790208 -0.01956986
0.01413218 -0.00531073 0.01167964
0.01291072 -0.00666862 0.00815553
0.00380182 0.01888582 0.02389615
0.00943042 -0.00816786 -0.00512814
0.00582198 -0.01397738 0.01195403
-0.00895682 -0.00696858 -0.01242700
0.01122080 0.01597540 0.02389615
-0.00153823 0.00455580 -0.02110379
0.01254061 -0.00991798 0.01741529
0.00045973 -0.01273240 -0.02606593
-0.01052842 -0.00263316 -0.01558095
-0.01361618 -0.01336783 0.01498931
-0.00636787 0.01357844 0.01104015
-0.00426701 -0.01398223 0.00867323
-0.01887791 -0.00330429 0.01574304
0.00595519 0.01559474 -0.00901910
-0.00506351 -0.01290645 0.00375718
-0.01519560 0.00790433 -0.00472821
-0.01239394 -0.01069415 -0.01226410
0.00877543 -0.00702099 -0.01309638
0.01205473 0.01298361 0.00125786
0.00607319 0.01899613 0.02346776
0.00105724 0.01556371 0.01496105
-0.01580359 0.01095658 0.01651253
0.00889044 0.01254089 0.01346217
-0.00832854 0.01207519 -0.02489371
-0.00081348 0.01536736 0.01365583
-0.01367454 0.01456619 0.02386013
-0.01128124 0.00442265 -0.00746413
-0.01286797 -0.01468543 0.01923193
0.01765953 0.00836000 0.01928876
0.00472410 0.01494917 -0.01926168
-0.00118625 -0.01650744 0.02106152
-0.00529991 0.01700868 0.00210852
0.01791802 -0.00027364 0.00314855
0.00117698 -0.01838029 0.00831051
0.01204205 0.01042025 -0.01676206
-0.00792913 0.01268990 0.01087667
0.01368434 0.00763324 -0.01935959
-0.01397844 0.01335196 0.01749899
0.01057003 0.01156163 0.01541207
0.01099096 0.01267114 -0.00809149
0.01398391 -0.00679625 -0.02058952
-0.01838521 -0.00000789 0.00796961
-0.00321998 0.01758253 0.00268198
-0.00636886 -0.01409236 -0.02140248
-0.01359872 -0.00722770 0.01370175
0.00535824 -0.01605337 -0.00668546
0.01437714 -0.00728540 -0.01489941
-0.00559967 -0.01575638 0.02213963
-0.00833991 -0.00604640 -0.01804761
-0.01022215 0.01219084 -0.01688510
-0.01450716 0.00803498 0.02128924
0.00448862 -0.01576962 0.02007077
0.01138354 0.01265346 -0.00563679
0.01319853 -0.00890367 0.01702096
-0.00894818 0.01481066 -0.00303066
0.01715993 0.00047484 -0.00429537
0.01343293 0.01005442 -0.00818614
-0.01676804 -0.00418934 -0.00312826
0.01700034 -0.00179679 -0.00487540
0.00863398 0.01029054 0.00096569
0.01764811 -0.00188275 0.00166444
-0.00038826 0.00907889 -0.01976823
-0.00605216 -0.01701663 0.00458009
-0.00272116 -0.01544401 -0.01911306
0.00690935 0.01837990 0.02058567
-0.01384517 -0.00913142 -0.01016265
-0.00647079 -0.01237264 0.00442794
0.00357360 0.01544138 -0.01741514
0.00692313 -0.00778398 -0.01774989
-0.00036933 0.00579788 -0.02109575
0.01040023 -0.01231388 -0.01486420
-0.00186095 -0.01903985 0.01539742
-0.00417919 0.01158047 -0.00623355
0.00981022 -0.00598762 -0.01144163
-0.00031747 -0.01880795 0.01213053
-0.00636801 0.01504684 0.01966685
0.01354575 0.01258960 0.00910032
0.01881056 -0.00628335 0.02256120
-0.00068301 -0.01539858 0.01379197
-0.01293647 0.00986036 -0.01322532
-0.01162740 -0.01175475 0.02092297
-0.01369269 -0.00914019 -0.01138237
0.01596225 -0.00039458 -0.01641313
-0.01060952 0.01308635 -0.00753097
0.01071641 -0.00575824 -0.02610379
-0.01300005 0.00642952 0.00795671
0.00290731 -0.00511472 -0.02108996
0.00175634 -0.00626290 -0.02103884
0.00324765 0.01582986 0.01857531
-0.00165757 -0.01030017 -0.01770439
-0.00867012 -0.01288792 -0.02077160
0.01223721 0.01352292 0.00654379
0.01597263 -0.00270336 0.01876500
-0.00801291 0.01631707 0.00597358
0.01165653 -0.01466861 0.01149125
-0.01289355 -0.01445411 0.01775468
0.01178416 0.00847321 0.00793506
0.00249551 -0.01280817 -0.00145392
-0.01565260 0.00070979 -0.01928884
0.01798588 -0.00557936 0.01244078
0.01682457 0.00102843 -0.00745687
-0.00063661 -0.01483030 -0.02464798
0.00824356 -0.00434190 -0.01954871
-0.00452287 0.01594825 0.02123581
-0.00396387 -0.01594675 -0.01175842
0.01434527 -0.00785084 -0.01256314
0.01363933 -0.01206773 0.00616548
-0.01301150 -0.00059891 -0.00161136
-0.00280403 0.01739653 0.00020948
0.00223719 0.01728819 -0.00148029
-0.00172200 -0.01662307 -0.00885267
0.01553173 0.00321606 -0.01746919
-0.01399497 0.01087398 0.00130953
0.01281469 0.00278737 -0.00100301
-0.00068797 0.01947863 0.02389615
0.01598307 -0.00429840 -0.01056166
0.00727566 -0.01408347 0.01661045
-0.00896867 0.00588008 -0.01633113
-0.01318461 0.00518520 0.00570939
-0.01481457 0.00799312 -0.00765812
-0.01422224 0.01302994 0.01712351
-0.01443692 -0.00989673 -0.00098540
-0.00667122 0.00129451 -0.02096976
0.00200833 0.00920319 -0.02610379
0.01196482 0.00419190 -0.02607072
0.00948944 -0.01046011 0.00548674
-0.01488485 -0.00760099 -0.00890324
-0.00256341 0.01072938 -0.01446868
-0.01874265 -0.00046653 0.01140275
-0.01618195 -0.00373886 -0.00983227
0.01066123 0.00552759 -0.00809421
0.01084362 0.01176876 -0.01588628
0.01293967 -0.00390362 0.00154203
-0.01863825 -0.00482639 0.01653713
0.01410333 0.01204203 0.02388344
-0.00790340 -0.01780532 0.01901800
0.01500100 -0.00502386 0.01638173
-0.01711058 0.00041945 0.02311127
0.00950652 -0.01043276 0.00543126
0.00429820 -0.00003456 -0.02110379
0.01565966 -0.00119696 -0.01898139
0.00579089 -0.01422999 -0.02234821
-0.00731977 -0.01563934 -0.00330805
0.01581369 0.00144033 -0.01730712
0.00143223 -0.01621752 -0.01320032
-0.00120570 0.01918584 0.01614684
0.00621295 0.01664337 0.00177179
0.01588991 -0.00648246 -0.00447829
0.01108021 0.01288331 -0.00589458
0.01095351 -0.00189525 -0.01392304
0.01449891 -0.01236669 0.01473893
0.01290471 0.00026945 -0.00238002
-0.01180513 -0.00252884 -0.02610379
-0.01225665 -0.01284695 0.00175894
0.00890327 0.01457201 -0.00529470
0.01004098 -0.01138745 0.01228387
0.00024674 0.01300815 -0.00169508
0.00660707 -0.01369513 0.01240437
-0.01800351 0.00436163 0.00938775
-0.01079246 -0.01536098 0.01179452
0.00968336 0.01632963 0.01375457
0.01842437 -0.00393818 0.01263044
-0.01840271 -0.00702936 0.02108937
-0.00667291 -0.01329235 0.01028654
0.00023517 -0.01164990 -0.01041022
0.00393613 0.01270162 0.00017648
-0.01260479 -0.00345006 -0.02598972
-0.00405020 0.01830004 0.01162213
0.01871553 0.00004071 0.01123984
-0.01060181 -0.01508625 0.00842433
-0.01230195 0.00176916 -0.00547628
-0.00448983 -0.01561032 0.01909558
-0.01106757 0.01552229 0.01475559
0.01267560 -0.00877105 -0.02187595
-0.00002225 0.01465758 -0.02492252
-0.01659837 -0.00207688 0.02215915
0.00032507 0.01098202 -0.01467533
0.01003457 0.00845206 -0.00099401
-0.00016714 -0.01839920 0.00792702
-0.00673186 0.00302982 -0.02080723
-0.01123069 0.01075336 -0.02043551
0.01305375 0.00405027 0.00252813
0.01574424 0.00208366 0.01670773
0.00783758 0.01500393 -0.00670122
0.01850681 -0.00160429 0.00998488
-0.01252044 0.00591250 -0.02564561
-0.01243954 -0.00602046 0.00352158
-0.01094615 0.00609652 -0.02608372
0.00536020 -0.01623783 -0.00490275
0.00267314 -0.01274069 -0.00166389
-0.01573036 0.00327095 -0.01541202
-0.00315927 -0.01336617 0.00294938
0.01352262 -0.00980736 -0.00904762
0.00204417 -0.01303164 -0.00056769
-0.00304344 0.01249287 -0.00270413
-0.01867456 -0.00508701 0.02389615
0.00480875 0.01633641 -0.00571347
0.01636011 -0.00610130 -0.00136191
-0.01604761 -0.00504281 -0.00762892
0.00264658 -0.01533214 0.01464417
-0.01085994 -0.01478822 0.00766060
0.01868844 -0.00144006 0.01165114
0.01277056 -0.01221902 0.00078876
0.00019752 0.01069656 -0.01655164
0.00699668 0.01631609 0.00144457
0.01412900 0.01058945 0.02359714
-0.00522513 -0.01118911 -0.02609847
-0.01451900 -0.00809788 0.02153975
0.00399373 0.01531510 -0.01763695
0.01866230 -0.00045213 0.01059882
-0.00387713 -0.01066552 -0.02610379
-0.01911219 0.00328685 0.01811791
-0.01302122 0.00817984 0.01355773
0.00767244 0.01369099 0.01554177
0.00384041 0.01275953 0.00034657
0.01313912 0.01331998 0.01106114
-0.00684169 -0.01185864 0.00262220
0.01767527 -0.00107629 0.00114990
0.01945694 -0.00123579 0.01913760
0.00915556 -0.01699100 0.01705410
0.01071076 -0.00826891 0.00160195
-0.01831810 -0.00234680 0.00868240
0.01749649 -0.00097170 -0.00076411
0.00555053 -0.01129821 -0.00444785
0.01089731 0.01663393 0.02308847
-0.00032898 -0.01554191 0.01461406
-0.00336151 0.00511392 -0.02610379
-0.00935185 -0.01049877 0.00507215
0.01082295 -0.00156570 -0.01507514
-0.00827190 -0.00778877 -0.01233879
0.00450031 0.00796864 -0.01971239
-0.01002418 -0.00123314 -0.01846394
0.00942564 -0.01265908 -0.01821170
0.01477217 0.00031561 0.00964462
-0.00983256 -0.00772229 -0.00500200
-0.00277708 0.01058933 -0.01500735
-0.01771304 0.00879128 0.02179630
0.01453650 0.00907402 -0.00471891
-0.01524204 -0.00320313 0.01482456
-0.00700077 -0.01414326 -0.01826617
-0.01092697 -0.01365895 -0.00092384
-0.00335207 0.01177647 -0.00663124
0.01106608 -0.00387844 -0.00993529
0.00891773 -0.00488554 -0.01836072
-0.01314993 -0.00568525 -0.02527399
-0.01809528 -0.00144839 0.00564405
-0.01129949 0.00581429 -0.00356212
-0.01367534 0.00487245 -0.02508267
-0.01348919 0.00710362 -0.02349882
0.00313108 -0.01889237 0.01568215
0.01162934 0.01162917 -0.01154846
-0.01612351 0.00238489 0.01941288
-0.00357720 0.01623178 0.02156366
-0.01665906 0.00818120 0.00954952
-0.00407333 -0.00332135 -0.02610379
-0.01436298 -0.00330195 0.00943982
0.01192855 -0.00090318 -0.00845437
-0.01118524 0.00713886 -0.00000504
0.00426595 -0.01895567 0.01832754
-0.00746455 -0.01701510 0.00995576
0.01122128 -0.00926510 0.00818097
-0.00693026 -0.01679997 0.00580494
-0.01086780 0.01273722 -0.00849487
-0.00130804 0.01345157 -0.02582924
0.01098340 -0.01399741 0.00200983
0.01747866 0.00772146 0.01522569
0.00274148 -0.01885912 0.01465989
-0.01380284 0.00868866 -0.01299805
0.01523972 -0.00271896 -0.02123750
0.00374554 0.00564146 -0.02610379
0.00097654 -0.01957942 0.02024833
0.01292039 -0.00327475 0.00033928
0.00148919 0.01759437 0.00059548
-0.00373918 -0.01626367 -0.00912589
0.01645022 -0.00480309 -0.00461387
-0.01495365 0.00780983 -0.00731864
0.01699781 0.00766794 0.01053954
0.00310556 -0.01830809 0.02388524
0.01772471 -0.00357901 0.00502950
0.01777334 0.00615493 0.01206352
0.01440794 -0.00551199 -0.02183672
-0.01590750 -0.00243019 0.01808397
-0.01753892 -0.00695424 0.01261850
0.00635501 -0.01080126 -0.00481041
-0.01907686 0.00568304 0.02324901
-0.01199522 -0.00915983 -0.02413180
0.00240895 0.01818183 0.00761251
-0.00798536 -0.01145880 0.00442439
0.01126114 0.00675537 -0.00089829
0.01347793 -0.00639597 -0.02450305
0.00567291 -0.01555604 -0.01051825
0.01792298 0.00773941 0.01941802
-0.00960754 0.01358752 -0.00958282
-0.01213760 0.00239184 -0.00580745
0.00907624 -0.01254457 0.01416933
-0.00241673 -0.01295899 -0.00059385
-0.01025075 0.00364015 -0.01537409
0.01913226 -0.00446058 0.02064915
-0.00449586 0.01928791 0.02229001
0.01686776 0.00820911 0.01157699
-0.00294379 0.01520881 -0.02112974
-0.00947194 0.01221513 0.01398966
0.01532764 -0.00026734 -0.02276504
-0.01345069 0.00917433 -0.01321930
-0.00991111 0.01666230 0.01778351
-0.01409707 0.00634708 -0.02148175
-0.01429359 0.01369085 0.02389615
0.01785124 0.00475416 0.00895293
0.00563585 -0.01459356 0.01520184
0.01049295 0.01150233 -0.02023631
-0.00019353 0.01680776 -0.00796647
-0.01134613 0.00327969 -0.00945630
0.00390117 -0.01168924 -0.00610663
-0.01422240 0.01263204 0.01443418
0.00162772 0.01672012 0.02249447
-0.00471190 -0.01323034 0.00491980
0.01813180 -0.00770435 0.02105391
0.01445335 0.00653279 -0.01746921
0.00990844 -0.00437549 -0.01572638
-0.01346020 -0.00953907 -0.01109907
0.00870637 0.00086768 -0.02005823
0.00934310 0.01445740 -0.00377842
0.01079123 0.01484689 0.00764690
0.00765650 -0.01477127 -0.00971052
0.00551212 0.01450028 -0.02085348
0.01127481 -0.00093335 -0.01261759
0.01178761 0.01068826 -0.01680651
0.00311716 0.01027772 -0.01628344
0.01141176 -0.01487276 0.01162960
0.00854926 0.01670771 0.01184161
-0.01533302 0.00285572 -0.01999385
0.01112437 0.01032777 -0.02379933
0.01919527 -0.00424145 0.02081460
0.00557492 -0.01252398 0.00279087
0.00139675 0.01297080 -0.00151109
-0.00361466 0.01666366 -0.00533668
0.01078311 -0.01182638 0.01759243
0.01362632 -0.00728586 -0.02155395
-0.01422692 0.01125022 0.00539465
0.01772131 0.00243996 0.00299153
0.01304069 0.00064045 -0.00141145
-0.01571976 -0.00449412 0.01977291
-0.00702498 0.00264476 -0.02610379
0.01867912 0.00327730 0.01376772
-0.01235051 -0.00987215 -0.01787732
-0.01418983 -0.01272695 0.01458010
0.01624213 0.00663742 -0.00033466
-0.01040154 0.00262986 -0.01638204
0.00451069 -0.01931603 0.02232992
0.01899741 0.00385754 0.01780263
-0.00316360 -0.00733470 -0.02055085
0.00384450 0.01879996 0.01600604
0.01380720 -0.01285402 0.01260907
-0.01383854 -0.00606343 0.01175611
-0.00413806 -0.01054446 -0.01255473
0.01580420 -0.00200384 -0.01662920
0.01319586 -0.00939995 -0.01405719
0.01104633 0.01311142 -0.00439849
-0.00328657 -0.01023066 -0.01624684
0.01358424 0.01091370 -0.00181894
0.00415959 -0.01097345 -0.00993373
-0.01585239 -0.00533157 -0.00858258
0.00561741 -0.01825044 0.01518393
-0.01298876 -0.00171159 -0.00116817
0.01518202 -0.01074799 0.00997591
0.01553951 -0.00239299 -0.01887090
-0.00423385 0.01343250 -0.02549581
-0.01182205 0.00015589 -0.00934656
0.01183029 0.01318577 0.00132425
-0.01619719 0.00044180 -0.01392813
0.01955133 -0.00154422 0.02035374
0.00207512 -0.01074383 -0.01496480
-0.00565739 -0.01594679 -0.00685727
0.01354465 -0.01151185 0.00192029
-0.00928465 0.00570093 -0.01526872
-0.00476987 0.01910848 0.02118759
-0.00697770 0.00381084 -0.02057015
-0.00265555 -0.01783255 0.00439367
-0.01677719 -0.00321244 -0.00510831
0.01427547 -0.00613476 0.01451627
-0.01317144 0.00600263 0.00767301
0.00923883 -0.00232529 -0.01930073
-0.01634130 -0.00082829 -0.01244321
0.00309966 -0.01541726 0.01577048
-0.01407662 -0.00627511 -0.02186286
0.01486421 -0.00355980 0.01294773
0.00412095 -0.01906971 0.01919840
-0.01160741 0.01132193 0.01889305
-0.01271085 -0.00549790 0.00365147
0.00892326 -0.00428090 -0.01879930
0.00248831 -0.01952217 0.02077278
0.01572063 0.00681737 -0.00457995
-0.00073792 0.01294535 -0.00189158
0.00039577 -0.01656472 -0.01036253
-0.00578826 0.00958351 -0.01338725
-0.00556454 -0.01445263 0.01419101
-0.01641368 0.00262425 0.02149113
0.00642098 -0.00641537 -0.01978000
0.01224483 -0.01508473 0.01841377
-0.01159819 0.01236411 -0.00646466
0.00194038 -0.01545510 0.01475492
-0.01799292 -0.00193666 0.00505385
0.01649151 -0.00953976 0.01460763
-0.00016128 0.01381486 0.00348209
-0.01221522 -0.00435847 -0.00195849
0.00092890 0.00319502 -0.02110379
-0.00577124 -0.00761810 -0.02610379
-0.01572749 -0.00331395 -0.01519392
-0.00206325 -0.01661837 -0.00863681
-0.01136136 0.01206076 0.02122014
0.00280871 0.01853842 0.01163319
-0.00162328 0.01182144 -0.00867186
0.01499879 0.00369896 0.01398747
0.01264066 0.01170670 -0.00359835
-0.01806249 0.00426497 0.00967376
0.01714980 0.00238049 -0.00278466
-0.00996473 0.01334552 -0.00949406
0.01049658 -0.00153316 -0.01707476
-0.01917308 0.00237299 0.01736951
0.01438089 0.00318206 -0.02483435
-0.00355666 0.00918506 -0.01888551
0.00640233 -0.00797097 -0.02610379
-0.01591344 0.01074066 0.01614561
0.01372970 -0.00920244 -0.01059121
0.01514477 0.01089834 0.01074266
-0.00218799 -0.01141837 -0.01057845
-0.01517779 -0.00581262 -0.01354598
0.01077141 0.01524492 0.01084309
-0.01346310 -0.00945519 -0.01154124
0.01020453 0.01207915 -0.01780545
0.00197346 -0.01603698 -0.01451867
0.00245506 -0.01954773 0.02096665
0.00151139 -0.01366818 -0.02570627
-0.01155200 0.01261164 -0.00491366
-0.00505467 0.01921431 0.02389615
0.01350302 -0.01373919 0.02389615
0.01098404 -0.01384854 0.00082267
0.00027207 -0.01606272 -0.01541260
-0.00544591 0.01658801 -0.00133251
-0.00198456 -0.01669823 0.02256036
0.00837476 -0.01699980 0.01354508
0.01751363 0.00710634 0.01323454
0.01752725 0.00905643 0.02146055
-0.00757102 -0.01182619 0.00496577
-0.01102269 0.00578087 -0.00525156
0.01584112 -0.00198468 0.01726347
-0.00710182 0.00171735 -0.02610379
0.00916615 0.01083910 0.00588126
0.00101616 0.01941827 0.01838256
0.01128032 0.00888378 0.00693441
0.00530654 0.01807673 0.01240396
-0.00280511 -0.00038568 -0.02610379
-0.01474823 -0.00089230 0.00965239
-0.00247764 -0.01576235 -0.01642938
-0.01780588 -0.00200564 0.00323946
-0.00569831 -0.01301441 -0.02538627
-0.00047509 0.01867841 0.01082350
-0.00811513 0.00931549 -0.00591598
-0.00900379 0.01561682 0.00420067
-0.01396335 -0.00418946 0.00838760
0.01374606 -0.00747860 0.01530873
-0.01286750 -0.01083313 0.02253928
0.00941558 -0.00184487 -0.01922873
-0.01648454 -0.00670148 0.02368060
0.00209937 0.01737963 -0.00073406
0.00323559 0.01014990 -0.01683871
0.00946708 0.01461008 -0.00179143
-0.00215988 0.01168133 -0.00894966
-0.01038104 0.01347051 -0.00602893
0.00413247 -0.00996040 -0.01606558
-0.00424749 -0.00723054 -0.02610379
-0.00901504 -0.01422501 -0.00748126
-0.01148349 0.00610891 -0.00165183
0.01906955 0.00355929 0.01807232
0.01774903 0.00503885 0.00871705
0.00368180 -0.01590574 0.01965569
-0.01539847 -0.00500438 -0.01394773
-0.01343921 0.00427493 0.00533265
-0.00981661 -0.01281940 -0.01444472
0.01410772 0.00189135 -0.02536583
-0.00238712 0.01630997 0.02060118
-0.01420368 0.01066123 0.00176582
-0.00675291 0.00212324 -0.02090182
0.01430097 -0.00964489 -0.00338612
0.01587514 -0.00160765 0.01721723
-0.01473529 0.00493952 -0.02066811
-0.00731489 0.01234142 0.00686325
-0.01576361 -0.00583181 -0.00787603
0.00372609 -0.01894858 0.01729695
-0.00880677 -0.00759115 -0.01057214
0.01009735 -0.00942479 0.00345697
0.00223278 0.01237282 -0.00450270
0.01377747 0.00366767 -0.02533655
-0.00664873 -0.01089493 -0.00327685
0.01056286 -0.01097707 -0.02350569
-0.01819503 0.00812106 0.02337801
-0.01237322 0.01314924 0.00456291
0.01788322 0.00499451 0.00989667
0.00857007 0.01374045 0.01881064
0.00132650 0.01688925 -0.00665925
-0.01629193 -0.00997486 0.01519483
0.00921126 -0.01463059 -0.00313674
0.00174048 0.01606264 0.01849956
0.01293059 -0.00933291 0.01714524
0.01238826 0.01151137 -0.00678524
-0.01426449 0.01006941 -0.00120761
-0.00134336 -0.00287819 -0.02610379
0.00671211 0.01343944 0.01124632
0.01794583 0.00703224 0.01696771
-0.01215146 0.00883681 -0.02428333
0.01387281 0.00027333 0.00384419
0.00055065 -0.01074381 -0.01611690
-0.00588174 -0.01247233 0.00327460
-0.01682826 -0.00726670 0.00739468
-0.00099681 0.01823545 0.02384255
-0.01473033 -0.00563229 -0.01839243
-0.01623396 -0.00097256 0.01924022
0.00618433 0.01299720 0.00715041
-0.01547688 -0.00492966 0.01912415
0.01004149 -0.01489523 0.00353472
-0.00574228 -0.01567614 -0.00915299
0.01802779 -0.00166868 0.00526255
0.00124236 -0.00668957 -0.02610379
-0.01238271 0.00913719 0.01356020
-0.01722718 -0.00167402 -0.00286178
-0.01649679 -0.00085091 -0.01087838
0.01604437 -0.00096875 -0.01533759
-0.01473967 -0.00965621 0.02357477
-0.00493125 0.01774147 0.00821833
0.00394536 0.01430100 -0.02464840
0.01431219 -0.00780625 0.01950113
-0.01558831 0.00793208 -0.00111438
-0.01172904 -0.01152399 -0.01143153
-0.01459394 0.00329298 0.01087879
0.00809138 -0.01767120 0.01857217
-0.01583455 -0.00120180 -0.01725277
0.00630552 -0.00530047 -0.02039728
-0.01612629 0.00485634 0.02262390
-0.00070594 -0.01535577 -0.02237700
-0.00693183 0.01399265 0.01507291
0.01434746 -0.00720369 -0.01552316
-0.00167110 0.00717841 -0.02610379
0.00804065 -0.00736495 -0.01525441
-0.00828099 -0.01035577 -0.00013003
-0.00559444 0.00960213 -0.02610379
0.01093230 0.01010360 -0.02454702
-0.00525401 -0.01833023 0.01485942
-0.01074329 -0.01377913 -0.00108337
0.00859074 0.01061973 0.00244257
-0.01737594 -0.00358190 0.00154541
0.00794481 -0.01767339 0.01800035
0.01169598 0.00679512 0.00158184
-0.00868890 0.01500141 -0.00271006
-0.01144522 0.00220197 -0.01042154
0.01124755 -0.00975645 0.01036578
0.01347503 -0.00675098 0.01161093
0.01789977 0.00748849 0.01825785
-0.00798585 -0.01576538 0.00063681
0.00510017 0.01668801 -0.00160001
0.00690617 0.00853915 -0.01477105
-0.00732168 0.01457670 -0.01277250
-0.01973457 0.00050217 0.02165150
-0.00869752 -0.01229719 0.01146652
-0.00983383 -0.01703604 0.02093673
0.01517880 0.00232173 0.01334715
-0.01137454 -0.01222446 -0.00893301
-0.00647057 0.01684355 0.00464138
0.01308948 -0.00447629 0.00357826
-0.01160477 0.00997577 0.01301972
0.01194691 0.01199185 -0.00674470
0.01529799 0.00100804 -0.02271787
0.00819552 -0.01454161 0.02195851
-0.01631437 0.00017024 -0.01289739
0.01613530 -0.00160027 0.01887194
-0.01308650 0.00904268 -0.01696463
-0.00608509 -0.01488764 -0.01515085
-0.01291656 0.01081307 -0.00760867
0.00843266 0.00651730 -0.01686332
0.00958583 0.01240479 0.01539909
-0.01464237 0.00619142 -0.01705399
-0.01251168 -0.00843132 -0.02410058
-0.00610342 0.01521607 0.02002466
0.01552002 -0.00036308 -0.02083789
-0.01126519 -0.01139646 0.01764860
0.00273953 0.01770388 0.00324987
0.00314918 0.01544874 0.01604016
0.01248743 0.00209114 -0.00398265
0.01568683 -0.01099930 0.01559597
0.01374858 -0.01120756 0.00158589
-0.01533190 -0.00088127 -0.02249924
-0.00943076 -0.00455535 -0.01758212
-0.00123427 -0.01187312 -0.00863006
-0.00428039 0.01457776 0.01235610
-0.00931935 0.00611288 -0.01363013
0.00999916 0.00587723 -0.01079521
-0.00364360 -0.00778536 -0.02017921
0.00577547 -0.00880943 -0.01739516
0.01763565 -0.00113405 0.00081592
-0.00341923 0.01427433 0.00902802
0.01783545 0.00473204 0.00874199
0.00482600 0.01895223 0.01979827
0.00677542 0.00711874 -0.02610379
-0.00939431 -0.01406704 -0.00691169
-0.01332578 0.01126311 -0.00151158
-0.00717167 -0.01182246 0.00356482
-0.01556937 0.01157432 0.01821380
0.00645873 -0.01479978 -0.01443397
-0.00958809 0.01194023 -0.02296563
-0.00006560 0.01066788 -0.01678429
-0.00329286 0.01723112 -0.00056828
-0.01561396 0.00777162 -0.00162193
0.01964194 0.00080679 0.02079738
0.00573534 -0.01777048 0.01093054
0.00709373 0.00104706 -0.02087882
0.01449808 -0.01274552 0.01712374
-0.00513893 0.01469871 -0.02021057
-0.01588402 -0.00072219 -0.01706532
0.00833818 0.01124319 0.00463834
0.01011536 0.01274673 -0.01336057
-0.00448894 -0.01373454 0.00758270
-0.01498586 0.00549178 -0.01637818
0.01480210 0.00466216 0.01445928
-0.01543770 0.01196552 0.01942675
-0.00225174 0.01500128 0.01215162
0.00963609 -0.00801782 -0.00474766
0.01025211 -0.00319514 -0.01632353
-0.00039660 0.01554638 -0.02052019
0.00964952 -0.01360436 -0.00928187
-0.01122604 -0.01442959 0.00703035
-0.01163639 0.00524062 -0.02606415
-0.01940798 -0.00299414 0.02031425
0.00049311 -0.01665369 0.02180839
-0.00971562 -0.00290094 -0.01842591
-0.00885584 -0.00562798 -0.01749992
-0.00995512 0.01605341 0.01293316
0.00767042 0.01536272 -0.00425477
-0.00611796 -0.01551844 -0.00919812
-0.00747138 0.01647892 0.00493890
0.01755388 -0.00715022 0.02389615
0.00980173 -0.01005304 0.00491314
0.00080326 0.01549141 0.01442496
-0.00011084 -0.01794231 0.02373698
-0.01517518 0.00306495 0.01421262
0.00029860 0.01836383 0.02386610
-0.00133250 -0.01858657 0.01055104
-0.00755814 0.00869011 -0.01130422
0.01304300 -0.00526192 0.00503862
-0.01104670 -0.01297544 0.02299157
0.00682155 -0.01251828 0.00632764
-0.00925891 -0.00648239 -0.01263797
0.01302635 -0.01125345 -0.00374250
0.00432330 -0.01847526 0.01369625
-0.00448017 0.01548163 -0.01486201
0.01122248 0.00642322 -0.00224996
0.00438906 -0.01616525 -0.00838762
0.01597752 -0.00178533 0.01799451
-0.00185062 -0.01172581 -0.00903028
0.01259989 -0.01176667 -0.00365380
0.00469176 -0.00091392 -0.02610379
0.00759513 -0.01685256 0.00906322
-0.00319294 -0.01886431 0.01554737
-0.00058203 -0.01382626 0.00365589
-0.01264349 0.00969212 -0.01661310
-0.00503781 0.00696512 -0.02610379
0.01085403 -0.01229840 -0.01197068
0.01155649 -0.01088842 -0.01726752
-0.01100332 -0.00536090 -0.00661376
0.00685227 0.01081956 -0.00298053
-0.01804317 0.00180410 0.00525047
-0.01727976 -0.00664099 0.00916178
0.01449387 -0.00838702 -0.00859421
0.01126991 0.01361493 0.02360108
0.01491088 0.00596934 -0.01528828
-0.01194739 -0.01326623 0.00257336
-0.00733996 -0.01323577 -0.02397731
-0.00221196 0.01901048 0.01558108
-0.01917356 0.00096264 0.01617077
-0.00892835 -0.01244076 -0.02296202
-0.01698999 0.00081663 -0.00573690
0.01294742 -0.00059953 -0.00199174
0.01760593 0.00438166 0.00559881
0.00236454 -0.01400829 0.00596528
0.00132953 -0.01596280 0.01761412
0.01851708 0.00618737 0.01916253
0.01739596 -0.00639328 0.00944311
-0.01194775 0.00936530 -0.02379787
-0.01623375 -0.00155019 0.01945979
0.01132538 -0.01562228 0.01709875
-0.00228077 0.00460891 -0.02110379
0.01476286 -0.00749911 -0.01046658
-0.00429883 0.00941649 -0.01790426
-0.01831894 -0.00148766 0.00792258
0.00430629 0.00127532 -0.02610379
0.00229393 -0.01402971 0.00601852
0.01325625 0.00444085 0.00452958
0.01636202 -0.00774387 0.00513369
0.01183937 -0.01035866 0.01579944
0.00875762 -0.00943038 -0.00257984
-0.00789887 0.01692114 0.02389313
0.00756910 -0.01478194 -0.01003071
0.01895671 -0.00342657 0.01679390
0.01006199 0.01108206 0.01092835
-0.01335433 -0.01254779 0.00726799
0.00379824 0.01712165 -0.00048114
0.01168310 0.00539419 -0.00261855
0.01560509 -0.01077246 0.01369057
0.00632884 0.01317765 0.00860941
0.01359257 0.00261209 0.00363969
-0.01396121 0.00549445 0.01108420
-0.01880459 0.00181767 0.01285233
-0.01225720 0.00772643 0.00784385
0.00994978 0.01209865 -0.01935721
-0.01057643 -0.00136132 -0.01683016
-0.00023799 0.01263707 -0.00406069
-0.01814190 0.00196695 0.00650176
-0.01280066 0.00834540 0.01293319
-0.01950384 -0.00214243 0.02039326
-0.00911104 0.01562681 0.00481025
-0.01723782 0.00039535 -0.00341743
0.00614901 -0.01738012 0.00836971
-0.00139402 0.01400582 0.00510807
-0.01296199 0.00429558 -0.02576708
0.01784770 -0.00359265 0.02382819
-0.00138891 0.01868352 0.01133273
0.00207413 0.00910066 -0.01953991
0.00696514 0.01621127 0.00035626
0.00406515 -0.01373999 0.00679580
-0.01701102 0.00302326 -0.00308993
-0.01370950 -0.01272522 0.02389615
-0.01557984 0.00870840 0.00257261
0.01312172 0.00659983 0.00911510
0.00465427 0.01668917 -0.00264198
0.01828854 0.00699862 0.02002269
-0.00396745 0.00912063 -0.02610379
-0.00016906 0.01514629 0.01204414
0.00868917 -0.00865531 -0.00654547
-0.00653093 0.01277189 0.00691413
0.01771646 0.00587233 0.01057649
0.01473759 0.01168159 0.01202608
-0.01464094 0.00649659 -0.01591205
-0.00918663 0.00851767 -0.02608269
0.00778588 0.01651327 0.00658754
-0.01840304 0.00563898 0.01662134
0.00950949 0.00859887 -0.00293005
0.00067824 -0.01770989 0.00127191
0.00295935 0.01152795 -0.00886948
0.00012807 -0.00738827 -0.02610379
0.00977536 -0.01441970 -0.00188812
-0.00085834 -0.01848661 0.00927016
-0.00074124 -0.01812250 0.00555962
0.00956521 0.01029400 0.00503004
0.01248476 0.01098179 -0.00967102
0.01774609 -0.00694660 0.01455904
0.01525928 0.00022187 -0.02342629
0.01372602 0.00949695 0.02193701
-0.01760167 0.00053949 0.00030568
-0.01415193 0.00916195 -0.00748593
0.01978459 -0.00059539 0.02183395
0.01916514 -0.00262368 0.01746047
0.00957773 -0.01148720 0.01076298
-0.01425816 0.01032246 0.00023079
0.01042034 -0.01199735 -0.01716059
0.00759160 0.01622698 0.00314134
-0.00777615 0.01447621 0.02034156
-0.01390786 0.01057207 -0.00116261
-0.00565742 -0.01914109 0.02383388
-0.00858565 -0.01388536 -0.01262628
-0.00634034 0.01577690 -0.00591182
-0.01121431 0.01364359 0.00068344
0.01992443 -0.00028182 0.02331708
-0.01364557 -0.01203925 0.00598454
-0.00889660 -0.00696506 -0.02610379
0.01631055 -0.00305810 0.02133502
-0.00000391 -0.01618490 0.01865636
0.00765581 0.00071230 -0.02067789
-0.01562523 -0.00253688 0.01639444
-0.01253404 -0.00239090 -0.00331879
0.01733129 -0.00858673 0.01759742
0.00834122 0.01172862 0.00717357
-0.00427265 -0.01800403 0.00897861
-0.01699793 -0.00854554 0.01443853
0.00005615 0.01077707 -0.02610379
-0.01584130 0.00188417 0.01719474
0.00342713 0.01021235 -0.01608482
-0.00852610 0.00724948 -0.01336199
-0.00911677 0.00802511 -0.00725172
-0.01008541 0.01552638 0.00926343
0.01054221 -0.00094600 -0.01715364
-0.00029762 -0.01434673 0.00692201
-0.00677229 -0.01619527 -0.00040794
0.00188422 -0.01956915 0.02068662
-0.00972148 -0.01665060 0.01703976
0.00185094 0.01217061 -0.02610052
0.00926160 -0.01695368 0.01727370
-0.01521743 0.00298932 -0.02092422
0.00373190 -0.01226853 -0.00287916
-0.01600043 0.00080512 -0.01571210
0.01394884 -0.00065692 -0.02557051
-0.01131467 -0.00240393 -0.01096090
0.00804451 -0.00922159 -0.02610379
0.00117747 0.00905375 -0.02610379
-0.00504392 -0.00977949 -0.01463473
0.01137132 0.01035140 -0.02215827
-0.01187394 -0.01425398 0.00957037
0.01503789 -0.00342788 -0.02168136
0.00733415 -0.01483311 -0.01060284
-0.00765241 0.01485105 -0.00881299
0.01903264 0.00573441 0.02295752
0.00926790 -0.01529804 0.00294344
0.01311746 0.00921355 -0.01573322
0.00731375 0.00721191 -0.02610379
0.00204125 0.01796201 0.00499020
-0.01682171 -0.00322148 -0.00465178
0.01012637 0.00711806 -0.02609579
-0.00521102 -0.01540368 0.01922313
0.01463501 0.00466023 -0.02246839
0.00108930 0.00808757 -0.02044849
-0.01694128 0.00023130 -0.00651426
0.01261053 -0.01445999 0.01582248
-0.01174355 -0.00757542 0.00458499
0.00215539 0.01451241 0.00895047
0.00590457 -0.01273048 0.00485862
0.01453470 -0.01312967 0.01983331
0.00736688 -0.00872049 -0.01199334
0.00866723 0.01267813 -0.02243521
0.00675193 0.01119869 -0.00126936
0.01260435 0.00163776 -0.00367712
0.00012760 0.01283047 -0.02604786
0.00547612 -0.01513463 -0.01515063
-0.01741867 0.00384492 0.00233301
0.00531940 0.01176036 -0.00238284
-0.01953226 0.00260484 0.02127113
0.00791268 0.01324962 -0.02176041
0.01105981 -0.00100245 -0.02610379
-0.00448186 -0.01006048 -0.01454913
-0.00675171 -0.01707427 0.02386575
0.00123866 0.01457755 0.00869911
-0.00025713 0.01888025 0.01277732
0.01420780 -0.00607270 0.01395729
0.01878276 -0.00172405 0.01284488
-0.01795930 0.00471211 0.00988594
-0.01153523 -0.01048568 -0.02019549
-0.00113007 0.01302795 -0.00124999
