# .PCD v0.7 - Point Cloud Data file format
VERSION 0.7
FIELDS x y z
SIZE 4 4 4
TYPE F F F
COUNT 1 1 1
WIDTH 1000
HEIGHT 1
VIEWPOINT 0 0 0 1 0 0 0
POINTS 1000
DATA ascii
0.00218824 0.03513247 0.08667891
-0.02586308 0.02697960 0.05767342
-0.00366026 -0.00404516 0.00333041
0.03102171 -0.01594425 0.08803166
0.01812756 0.03166063 0.07604174
-0.01330161 0.03726905 0.06485639
0.00405688 -0.03511354 0.08471225
0.02127924 -0.00373487 -0.05096036
0.00571387 -0.03497946 0.04699207
-0.02708581 0.00997457 0.03009716
0.02996918 0.01925998 0.08277435
0.02999115 0.02028362 0.09369594
-0.02583795 0.00149190 0.02524802
-0.03741816 0.00130363 0.05913656
-0.00032759 0.01598385 0.01373187
-0.01094189 0.00792037 -0.04835879
-0.00404820 -0.03713030 0.08498677
-0.03066975 -0.00620982 0.03040552
0.00673272 0.02697740 0.02840646
0.00217214 0.00277060 -0.03572060
-0.00813406 -0.00350314 -0.04504347
-0.00497238 0.03571863 0.09558760
0.01281873 0.03500325 0.05750798
-0.01194170 -0.03694065 0.07343738
0.03826188 -0.00320515 0.07637762
-0.00120081 0.02005630 -0.05038520
0.02984463 -0.01385771 0.10368044
0.01115422 -0.03613431 0.04848681
-0.00318262 0.03693204 0.05527983
0.02787039 0.01883554 0.09813510
-0.00596506 0.01943307 0.01524076
-0.01287151 0.03627631 0.05102101
0.00880906 -0.03287780 0.09471701
0.03358800 0.00896018 0.08926328
-0.03744453 -0.01032007 0.07418510
-0.00918978 0.03506444 0.07867026
0.00933827 -0.01175526 -0.04914356
0.03657718 -0.01079393 0.07846277
-0.00303488 -0.00045362 -0.02467141
0.00321288 -0.02485232 0.02090775
-0.03600053 0.00845888 0.08883342
-0.01977334 -0.03351748 0.05423949
-0.03317031 0.00541851 0.04055322
-0.02345963 0.01439469 0.02407840
0.00513231 -0.02938781 0.02799539
-0.02413763 -0.02832690 0.06997174
0.00047901 0.00063157 0.00322231
0.03239107 0.01326216 0.04532441
0.02372214 -0.02791791 0.07442291
-0.00084897 -0.03494949 0.03874279
0.01218348 -0.01349735 0.01606767
-0.00266596 -0.03077845 0.03421092
0.03343256 0.01667723 0.06739137
0.03734023 -0.01248295 0.06550859
-0.00604953 0.03600471 0.07634137
0.02021193 -0.02470668 0.03190873
-0.01956919 0.00545689 0.01813639
-0.00956906 0.01102986 -0.04891758
0.03642288 -0.00840978 0.06117365
0.02350492 -0.00074367 -0.05096036
-0.03402927 0.00641056 0.03739516
-0.02042190 0.03132765 0.06877684
-0.00733049 -0.03452938 0.10146973
0.03224210 -0.01122073 0.03677009
0.03580133 0.00658183 0.05153158
0.01449894 -0.02517352 0.02674139
-0.03576019 0.01019448 0.07108743
0.03654664 0.00469310 0.07284863
-0.00190311 -0.00276943 0.00087610
0.01503640 0.01079714 -0.05096036
-0.00597721 -0.03218744 0.03840223
0.03871891 0.00256954 0.07304034
0.00770314 -0.02888002 0.03230849
-0.01610727 0.03474249 0.07848766
-0.02759946 0.01910177 0.10403960
0.00422273 0.03500774 0.03936406
0.00991096 0.01574404 -0.05096036
0.02630283 0.02673030 0.06368940
0.03384318 0.01303594 0.09311744
-0.01693743 -0.03354910 0.08354588
-0.03333663 0.01744897 0.06308704
0.02032326 0.03128424 0.06872752
-0.00626239 0.03696748 0.06056467
0.01627683 0.03200750 0.08088203
-0.00428535 0.00302582 0.00553247
-0.03512435 -0.00551963 0.09998798
0.01618052 -0.03371864 0.06482828
-0.00782611 0.01569099 0.01524325
0.03499890 -0.00226686 0.08651123
0.02507846 0.02736330 0.05639782
-0.00528762 -0.00745661 0.00572347
0.02857564 -0.02169126 0.04141439
0.03097278 -0.02058152 0.08569472
-0.00285010 0.00118392 -0.00246023
-0.00070406 -0.03745674 0.06415227
-0.02515842 -0.02759066 0.05845989
0.00303764 0.02228323 -0.05096036
-0.00410912 -0.03727560 0.06296059
-0.02877075 -0.02619491 0.05412068
0.03073964 -0.01632879 0.03842514
-0.01877832 0.01950933 0.02348352
0.00468709 -0.00853521 0.00618190
-0.00905704 -0.03838255 0.06049316
0.00293977 -0.02130095 -0.05050987
-0.01293781 -0.02775876 0.02928369
-0.02665243 0.02597309 0.07100726
-0.01544100 0.03061637 0.03672857
-0.01984620 0.02075328 0.02599521
0.02649745 -0.00580516 0.02748666
0.01238964 0.03139078 0.09757702
0.00795754 -0.00958385 0.00824233
-0.00691332 0.03619226 0.07384908
-0.02912024 0.02316897 0.05608257
0.01046717 -0.03464517 0.07812035
-0.02804015 -0.01974013 0.09399274
0.00592866 -0.03884480 0.06848558
0.00475231 0.00872260 0.00877709
0.00814099 -0.03745660 0.07719953
0.01822049 0.01048241 -0.05096036
-0.03373168 -0.00816936 0.09074757
-0.02203946 -0.03000901 0.05700618
0.03812937 -0.00983047 0.06544290
-0.03748683 -0.00168178 0.08438357
0.02264415 0.02800175 0.09538567
-0.00030200 0.02578304 -0.05017483
0.02436659 -0.02289196 0.03511255
-0.00495886 -0.03914587 0.06470599
-0.00345419 -0.03771479 0.04863372
-0.01881566 -0.01540354 0.01980921
0.02332196 0.01925892 0.03286811
-0.02439846 -0.01623435 0.02698348
0.01986967 0.02014802 0.02922125
-0.03387597 -0.00005663 0.09714175
-0.00022440 0.03924689 0.06973444
-0.02136727 0.01250305 0.02031932
0.02223048 -0.02994159 0.05955350
-0.03169279 -0.01745709 0.09474789
-0.03556304 0.00216453 0.04716420
-0.03648691 0.00624508 0.04465329
-0.00104534 0.03203389 0.03666841
-0.00345357 -0.00180922 -0.03684359
0.01007931 -0.03603843 0.06507312
-0.01527982 -0.01935885 0.02029512
0.02250202 -0.01930819 0.03189792
0.03922264 0.00340556 0.06032574
0.02921514 0.00437968 0.02756715
-0.00689596 0.03627282 0.07323945
-0.01475841 -0.03656675 0.06663174
0.01724788 0.00307955 -0.04994535
-0.03268630 -0.01477779 0.09746371
-0.00802885 0.03277124 0.04099802
0.02775048 0.00213539 0.02859553
0.02211710 0.02539656 0.10403960
0.03203774 -0.00615880 0.03822335
-0.01404181 -0.00898581 0.01439093
0.02919867 0.02659241 0.06204137
-0.01776131 -0.01517366 0.02186378
0.00620983 0.02245267 0.01863910
-0.00959491 0.03301887 0.09318752
0.00158547 -0.01316594 0.01143377
0.01619847 0.03081424 0.08935582
0.01855701 -0.02625429 0.03717926
0.01852030 0.03195954 0.08837195
-0.00239354 0.03209736 0.03215107
0.03308073 -0.00823542 0.09429729
0.00745020 0.03544389 0.09458751
0.02634338 -0.02299186 0.03891938
-0.01167400 0.00357686 0.01042005
-0.02415065 0.02785247 0.05350144
0.02226190 0.02477201 0.10130529
0.01510127 0.03379393 0.04486731
-0.00406263 0.03660234 0.05333687
-0.02053239 0.02931383 0.04065891
-0.03143644 -0.02049531 0.06093860
0.03154012 -0.02015410 0.06288310
0.02753947 -0.01293840 0.02912673
-0.00037292 -0.00219857 0.00387544
-0.01346075 0.03484371 0.06889847
-0.02551104 0.02737721 0.04613569
0.01199812 0.03091669 0.03433418
0.03772879 0.01157294 0.06310315
0.00256587 0.03943698 0.06117234
-0.01255665 -0.03469806 0.07269632
0.01342358 -0.01216977 -0.05007593
-0.03948963 -0.00296730 0.06187173
-0.00945137 -0.00684416 0.01005999
-0.00786657 -0.03439180 0.03955982
-0.01415877 0.03457337 0.06916026
-0.00887110 -0.03453123 0.08274768
0.03428294 0.01778739 0.05232574
0.03603275 0.01493224 0.07174345
-0.03543092 0.00462734 0.08264606
0.02346337 0.02432597 0.04135092
0.02584938 -0.00641673 0.02312137
-0.02990965 0.01881314 0.04605841
0.00243321 -0.03909703 0.06990967
0.03165535 -0.00150981 0.03148789
0.00709951 -0.03841629 0.07092941
0.02068653 -0.00209207 0.01584815
-0.01367289 -0.03577852 0.07764002
0.03374713 -0.00156096 0.09660811
-0.00626057 -0.03433236 0.03855020
0.01068804 0.03285283 0.04350326
-0.00138919 -0.00888818 0.00565474
-0.03783248 0.01163001 0.06537374
0.03525839 0.00973250 0.09097393
0.02935808 -0.01778491 0.04313452
0.01558999 -0.00389363 0.01392961
-0.00258376 -0.03575851 0.04120799
0.00374835 -0.03164424 0.03645837
0.00340181 0.03260682 0.03833481
0.03149660 -0.02006808 0.06045420
0.00280290 -0.03851811 0.05254036
0.02434718 -0.01156455 0.02355679
0.03014707 -0.02190194 0.06799026
-0.01460999 0.00057300 -0.05096036
-0.03405613 0.00921847 0.04588510
-0.02271208 0.02785810 0.08127685
0.00251458 0.03495515 0.10386808
0.00356861 0.00359011 0.00549991
-0.00128674 -0.00607741 0.00623961
0.01034524 -0.01326448 -0.04978235
0.00252167 0.00165337 -0.03229589
-0.00119151 -0.03938942 0.06054401
0.02335786 -0.02356231 0.03457758
0.03077371 0.01942606 0.07672009
0.03043282 -0.00298558 0.03358792
-0.02916875 -0.02613380 0.05615494
-0.00521393 0.01543856 -0.04954330
0.01942320 -0.01412319 0.02293506
-0.01172480 -0.03516814 0.05589257
-0.03623798 -0.01430125 0.07318410
0.02136196 0.03268189 0.05558496
0.03275098 -0.01540789 0.07777549
0.01455036 0.02910060 0.03293555
0.02622792 -0.02098913 0.03547521
0.03077922 -0.01947939 0.07608466
-0.03133347 0.02420300 0.06497087
-0.03664088 -0.00150725 0.09112892
-0.01050390 0.03384096 0.04641557
0.02775396 -0.02374897 0.04358275
0.00527898 -0.03603022 0.04293157
0.01260345 -0.03714423 0.06916349
-0.01626881 -0.03263562 0.07618539
-0.01813992 0.00961379 -0.05096036
-0.03556689 0.00445667 0.08177983
0.00710364 -0.00525996 0.00559806
0.03606076 -0.00606811 0.04368004
0.00180256 -0.03934085 0.05967946
-0.01230383 0.03398948 0.09545899
0.03551443 0.01125332 0.05804766
0.03792308 -0.00240110 0.07936203
-0.00825501 -0.02269691 0.02301412
0.02105952 -0.00899930 0.02140134
-0.03601798 0.01448324 0.07455223
-0.03044350 0.01439092 0.09884311
-0.03417838 -0.01227155 0.09363652
0.01520402 -0.01342659 0.01831677
0.02836191 -0.01988523 0.04421160
0.00699003 -0.00669397 -0.05096036
0.03847076 0.00656458 0.07101507
-0.01391410 -0.00872318 0.01145006
-0.02478413 -0.02171220 0.03379940
0.02614785 -0.02433835 0.08142500
0.01567688 0.02662946 0.02981699
-0.00340538 -0.03738746 0.08349968
0.02626562 0.02780014 0.07812204
0.03136418 0.01513130 0.03840856
0.02839519 -0.02439914 0.06242115
-0.03079057 -0.01434515 0.09625010
-0.00162844 -0.00252296 -0.00088433
-0.03848026 0.00867235 0.05904778
0.00308847 -0.00555258 -0.04219809
-0.02746335 -0.02174023 0.08795967
0.02863596 0.00300303 0.03023071
0.02909608 0.01987866 0.08561014
0.03174511 0.01342045 0.03739727
0.01600422 0.03167239 0.08422190
0.00741609 -0.00272839 -0.05096036
-0.03040063 0.01792849 0.08617689
-0.02942107 -0.02192262 0.05257614
0.02989842 0.00980001 0.03101350
-0.03615017 0.00686970 0.04377762
0.00036291 0.02657116 -0.05096036
0.00047059 -0.02953397 0.03159571
0.00252920 0.03286518 0.10394968
0.03051067 0.02420900 0.05476434
0.00171330 -0.03808410 0.07890832
-0.02471457 -0.02729983 0.05375979
0.01924425 -0.00851018 0.01920257
0.02098660 0.02691262 0.09439437
0.01293067 0.01708365 -0.05049915
0.03408452 -0.01253677 0.07659736
-0.01660142 0.03340955 0.05706700
-0.02568735 -0.02591575 0.09231187
-0.03440858 -0.01262817 0.07550749
0.01528131 -0.01538774 0.01687612
0.01230622 -0.03583223 0.04865813
0.01728946 0.03072594 0.04611238
-0.02938122 0.02469502 0.05050338
-0.02457785 0.00514940 -0.05096036
0.02900541 -0.02099059 0.08065867
-0.00307751 0.00011499 -0.01773195
0.02576854 -0.02521975 0.04987779
0.03935092 0.00253414 0.06189549
0.01021050 0.00802926 0.00860462
0.00372901 0.03610363 0.09377004
-0.03014149 -0.01817852 0.10283385
0.03642458 -0.01303075 0.07384121
-0.03235827 -0.02043248 0.07854735
0.03575199 -0.00652413 0.09238642
-0.00318879 0.00905027 0.00597855
-0.03790220 0.01087707 0.05828718
-0.02707460 0.02550212 0.04520796
0.03666209 0.01375848 0.06967135
0.02700605 -0.02584547 0.06579558
-0.00697642 -0.01737671 0.01369310
-0.01115024 -0.03110925 0.10292046
-0.03686699 -0.00649080 0.05900137
0.03197038 0.00787382 0.10344419
0.02526887 -0.02712171 0.07055135
0.02806888 -0.02419189 0.07053487
0.03035665 -0.02180492 0.06540009
-0.03473597 -0.00941800 0.09667987
-0.02001230 -0.03169498 0.06511011
0.00988909 0.02274109 0.02385464
0.02722543 -0.02369377 0.09442122
-0.02494401 -0.02599976 0.09602504
-0.03691982 0.00269671 0.05470776
-0.03243568 -0.01784913 0.05490690
-0.02919032 -0.01855960 0.04353964
-0.01989071 -0.00233719 0.01492018
0.01739076 -0.00882781 0.01454918
-0.01823351 -0.03135101 0.05056602
-0.01282680 0.01946248 -0.05047462
0.01046982 0.02272899 0.02077641
0.00852168 -0.00580497 0.00912797
-0.01627173 -0.03586985 0.05918320
-0.00436136 0.03926602 0.06604499
0.02563168 0.00948205 0.02778310
0.00285374 0.02603406 0.02579601
0.00691963 0.01113160 -0.04820498
-0.03229423 -0.01822079 0.07171817
0.03665747 0.00320073 0.05414011
0.02530475 0.00757013 0.02629627
0.00524902 -0.03912547 0.06337174
0.02967734 0.02219398 0.04527551
-0.01938754 -0.02920408 0.08746130
-0.01129459 0.03365969 0.08437716
0.03509281 0.01310168 0.06222602
-0.03574891 -0.01320815 0.07963329
0.00160685 0.03740670 0.06002050
0.01342568 -0.03042969 0.10085751
0.02256717 -0.02708120 0.10080091
0.02206044 -0.02884984 0.09261181
0.02576400 -0.02706476 0.06660662
-0.02951241 -0.02051739 0.08092977
0.02592309 -0.02927577 0.07031389
0.00674520 0.03329824 0.10403960
0.02966692 -0.02093964 0.07671294
-0.01529586 0.03392108 0.07047727
-0.02138370 -0.02159065 0.03303454
0.01053340 -0.02580625 0.02861563
0.03153963 -0.01461466 0.04469528
-0.00879364 0.02812610 0.03123425
-0.02919658 0.01094978 0.03460706
0.02839434 -0.02306391 0.04370941
0.03712441 -0.00795263 0.04930311
0.03725560 0.00131103 0.05918278
0.02236481 0.01302375 0.02545675
-0.02765533 0.02593702 0.08150659
0.00139296 -0.01709304 0.01497121
-0.03467898 -0.01906561 0.06233070
0.02146778 -0.03044063 0.06835740
-0.00587740 0.03027029 0.02961351
0.01041467 0.01273005 0.01422337
0.02231088 -0.02843023 0.07821009
0.01989675 -0.00366264 -0.05041001
-0.01217546 0.00182280 -0.05096036
-0.02973033 -0.01474975 0.10250121
-0.02473694 0.00811084 -0.05014409
-0.02657494 -0.02619819 0.08578924
-0.01857374 0.03208970 0.08795740
-0.01187012 0.02109065 0.01961719
0.03200440 -0.01927053 0.06614347
0.00581944 0.02349562 -0.05042796
0.02413268 -0.02423121 0.04258593
-0.02829454 0.02749250 0.05877175
0.03647587 -0.00893722 0.04733750
-0.03263245 0.01562042 0.09513790
0.00738655 0.03816746 0.07352492
0.03905957 -0.00220076 0.06972784
0.03231355 0.01637159 0.07783433
0.01173572 -0.03519959 0.08669969
-0.02266524 -0.02702670 0.10145747
-0.01165565 -0.00456209 0.00817107
-0.02222885 0.03123394 0.07832055
0.02556655 -0.02779117 0.08148138
0.01035263 -0.01522426 -0.05096036
-0.01320873 0.03265170 0.10233115
0.02300785 -0.02824950 0.09158275
-0.03475102 -0.00499191 0.08741515
0.00086763 0.03637000 0.05091448
-0.03325402 0.01708246 0.05767645
0.03093012 -0.01970292 0.08992821
-0.01032611 0.03598191 0.05910247
0.01679382 0.01543459 0.01812224
-0.02228734 0.02856077 0.09457234
0.02995414 -0.00118525 0.02827346
-0.02805512 -0.01441808 0.03088696
0.02181502 0.03144053 0.07804561
0.03888146 0.00626573 0.06091108
-0.02766039 -0.02339632 0.09443084
-0.03052443 -0.02014562 0.05170632
0.01719881 -0.01423465 0.01762630
0.02918740 0.01387372 0.03751166
-0.03282303 0.01225815 0.08849869
0.03565199 -0.01673682 0.06466593
-0.00633222 -0.03539770 0.08008052
0.01858003 0.03200146 0.08785277
-0.00604163 -0.00934515 -0.05096036
-0.02057746 -0.02937270 0.09723380
0.00405910 -0.03633843 0.07519196
-0.03487517 -0.00038244 0.04440439
-0.02997610 -0.02579552 0.06250673
0.03617982 0.00955431 0.08420293
0.02442615 0.02546918 0.03963984
-0.02745084 -0.01133745 0.02757737
-0.01043841 -0.03606526 0.04697035
-0.03099544 -0.02042628 0.04514705
0.03152003 -0.01662464 0.08214525
0.00312083 0.03906910 0.05638522
0.00249396 -0.03311597 0.10403960
0.02830109 0.02746953 0.06696298
-0.00110917 -0.03523217 0.03953049
-0.03780043 -0.00929891 0.05407251
0.02055357 -0.02886038 0.04704350
-0.00234682 -0.01349639 0.01179689
0.01065437 -0.00213049 0.00704047
-0.01366416 0.03673905 0.07080537
-0.02152224 -0.00846725 0.02150397
0.03284757 -0.00284727 0.10289090
-0.00817545 -0.03381712 0.10403960
0.02590976 0.00005815 0.02551171
-0.03414915 0.00203238 0.03652654
-0.01379331 -0.03648247 0.07207318
0.00427592 -0.00021678 0.00503295
0.02378229 -0.00506891 0.02332362
-0.00812415 0.02462049 -0.05015574
0.01771146 -0.00915134 0.01498270
-0.01851396 -0.03354424 0.05056915
0.01881873 0.03173811 0.07270974
-0.02099804 -0.03089486 0.05834643
0.02964122 0.01869575 0.10308962
0.00521141 0.01032845 0.01000953
0.03476821 -0.01156805 0.04398990
-0.03323801 0.00996411 0.03758450
-0.01356830 0.03504709 0.06322761
-0.01530465 0.03320533 0.07598950
0.01743974 0.03188358 0.07730934
0.00321370 -0.00960555 -0.04629166
0.02414789 0.00045130 -0.05042641
-0.02059674 -0.01278396 0.02304970
0.02583885 0.02986387 0.06500111
0.00046148 0.02348325 0.01883313
-0.00883981 -0.03283514 0.03628015
-0.02263463 0.02784472 0.09718968
0.02570343 -0.00981574 0.02811531
-0.02710893 -0.02204320 0.03845352
0.03430001 -0.00236967 0.04328506
0.03623315 0.00312233 0.04287723
-0.02994459 -0.02517230 0.07125274
0.01155050 -0.03480733 0.09007840
0.00842791 0.01924310 0.01904688
-0.01877603 -0.02288353 0.02750480
-0.03924863 -0.00362925 0.05808235
-0.02262490 0.02495506 0.09861383
0.00679655 0.00308216 -0.05096036
0.02843432 -0.02295890 0.09108926
0.00624582 -0.03681620 0.05979287
-0.02193892 -0.03071403 0.04756545
0.00547300 -0.03653973 0.07209386
0.00352623 -0.02661014 -0.04996978
0.01346592 0.02343530 0.02720870
0.01274132 -0.03479553 0.07072497
-0.00261453 -0.03403649 0.10403960
0.03728424 -0.00324935 0.06426875
0.01413057 0.02479647 0.02966117
-0.01556953 -0.03003139 0.09689388
0.00428385 0.00905349 0.00883898
0.02212838 -0.00551909 0.01819556
-0.03162685 -0.01844639 0.07540469
-0.02235255 -0.01855733 0.03051357
0.00426862 0.03803060 0.05022150
-0.03553517 0.01099571 0.07118905
-0.03835430 0.00679227 0.07341560
-0.02854721 0.00900597 0.03206866
0.03413292 -0.00064419 0.04247404
-0.00602118 -0.02764795 0.02549828
-0.00555752 -0.03766572 0.07936103
-0.02638236 -0.00419255 0.02300080
-0.03063313 0.01800975 0.03999241
-0.02580803 -0.01410226 0.03116226
-0.00689506 -0.03121930 0.03662635
-0.02236519 0.01208092 -0.05025132
0.00835237 0.03544246 0.09278647
-0.01879904 -0.02779478 0.09906907
-0.00441802 0.03895717 0.07033343
-0.03623399 0.00933602 0.05865693
-0.03774719 -0.00639481 0.07855284
-0.03419372 0.00887817 0.03941193
-0.02824945 0.02383816 0.05413756
0.02117290 0.03000799 0.07412526
-0.01726068 0.03336911 0.06497600
-0.00577347 0.03649027 0.05443031
-0.00519004 -0.03916416 0.06236761
0.02603189 -0.00776800 0.02752692
0.00375493 -0.03729073 0.06370743
0.01914833 0.03424591 0.06975868
0.01050500 -0.02078494 0.02191385
-0.03560240 0.00909535 0.07475764
0.02974473 0.02298230 0.04712788
-0.01038475 -0.02903207 0.03406440
-0.03468976 -0.01487083 0.04748829
-0.01074601 -0.03448645 0.09462704
-0.00039065 0.03298745 0.10379517
-0.02525568 -0.02530684 0.08223786
-0.00996961 0.00714946 0.01047312
-0.01071729 -0.03402881 0.08239994
-0.02490110 -0.01260225 0.02472665
0.00237358 0.03343567 0.03506332
0.02376649 -0.02713248 0.04189973
-0.00301406 -0.00056337 -0.01510292
-0.02616340 -0.02964288 0.06425964
-0.01108455 -0.01555823 0.01689348
0.01770132 0.02824029 0.10086456
-0.01040468 -0.03448449 0.07978509
-0.01954719 -0.00044740 -0.05096036
-0.00933689 -0.01252031 -0.05096036
-0.03448604 0.00776232 0.04611160
-0.01463014 0.03402339 0.05482087
0.00617625 0.01068706 -0.05096036
-0.03149169 -0.02198826 0.07705972
0.00320675 0.03741855 0.06376568
-0.01464271 0.03295379 0.08001373
0.00918291 -0.01830007 0.01553233
-0.01750417 -0.03255503 0.07258937
0.01529193 -0.01565090 0.02016959
0.00902106 0.03576875 0.07298561
0.02783377 -0.02633478 0.07700186
0.02296677 0.02059857 0.02980645
0.02095589 -0.02970536 0.09268809
0.03595751 -0.01138299 0.04807766
0.02576837 -0.00096878 -0.05015209
0.02266404 -0.01966519 0.02833490
0.01130692 0.03534295 0.07138609
-0.02590137 0.02424392 0.08490092
-0.03134568 0.01045166 0.10390349
0.01187749 0.03537987 0.06857971
0.00681283 -0.00506149 0.00537014
0.01570717 -0.03396441 0.06367621
0.02407807 0.00044570 0.01966759
0.00970462 -0.00313691 -0.04637552
0.01189820 0.03752306 0.06824939
0.01277646 0.03720563 0.05777940
-0.03370431 -0.00494730 0.09556008
0.02827489 0.01369424 0.03090551
-0.02657179 0.01699189 0.03539173
-0.02410711 -0.01524062 0.02952130
0.01596866 0.03615044 0.06404335
-0.02541408 0.02578768 0.04971683
-0.03247744 0.01998671 0.07997807
-0.03438979 -0.00711889 0.08772792
-0.00232550 0.02777582 0.02844828
-0.01779710 0.03465395 0.07332802
0.03533311 -0.00175654 0.04687442
0.03855184 0.00546664 0.05528565
0.00553232 0.01924024 -0.05096036
0.01798624 0.01980942 0.02681242
-0.01796659 -0.00066834 0.01284566
0.03013280 0.02510076 0.06933340
-0.01875990 -0.03260314 0.04701445
0.02147034 -0.01862118 0.02581042
-0.01358661 0.02801676 0.03455072
0.01203688 -0.03570746 0.08218885
0.02539066 -0.02388039 0.08821545
-0.03865106 0.00641193 0.05582905
0.01695586 0.03272572 0.07338305
-0.02045927 -0.01063210 -0.05048653
0.00107077 0.03497584 0.04503310
-0.00248660 -0.00217321 0.00065663
-0.03190866 -0.01026749 0.09991404
-0.02845094 0.01751028 0.10084507
-0.00162889 -0.00386622 -0.05096036
0.01319188 -0.01617808 -0.05096036
0.03707270 -0.00484186 0.06505217
0.01300957 0.01117047 0.01216794
-0.02546816 0.01157296 0.02855758
0.00792005 -0.00433026 -0.05096036
-0.00448209 0.03699496 0.06979314
0.02386982 -0.02320941 0.03479862
-0.03570214 -0.00805439 0.07587679
0.01589599 0.03387549 0.06027881
0.01255833 0.03375249 0.09595132
0.00806707 -0.03698970 0.08092893
-0.01685944 -0.01901912 0.02468276
0.03461622 0.01440085 0.06286873
-0.02836892 -0.01468238 0.03636848
-0.03061113 0.01063222 0.03249718
0.01038781 -0.01679603 0.01479976
0.01261157 0.02897076 0.03110800
0.01717383 -0.03273271 0.07192616
0.03046555 0.02127274 0.06988806
-0.03614861 0.00988551 0.04627765
0.00274407 -0.00121585 -0.03281552
0.01196200 -0.02275076 0.02183674
-0.03120021 -0.01951902 0.07393800
0.03229151 -0.01419175 0.10111352
-0.03262831 -0.01822793 0.06848498
-0.01822308 -0.00858029 -0.05039003
0.03557637 -0.00161764 0.08225206
-0.02195157 0.02913741 0.04276050
-0.01399010 -0.01093504 0.01264518
-0.00518782 0.00326559 -0.04160442
-0.02661151 0.02850935 0.05447739
-0.02515538 -0.01467125 0.03066026
-0.00760426 0.01116698 0.00891280
-0.00292494 -0.02988248 0.02827245
-0.02139546 -0.03208335 0.05180220
-0.01687828 0.03153899 0.08245578
0.00668438 -0.01414274 -0.05096036
-0.02216188 -0.03182818 0.05322701
0.02667617 -0.02189693 0.04365411
-0.00580094 0.03301478 0.03502558
0.03554751 0.00389295 0.04103478
0.01235855 0.03723611 0.05667875
-0.00869824 -0.03482547 0.09638869
-0.03518717 -0.01289603 0.08458544
0.02051074 -0.03077660 0.07168039
-0.00909000 -0.03267712 0.09628582
-0.03480900 -0.01400593 0.08446563
0.01935221 0.03398592 0.07120753
-0.00211054 -0.00323214 -0.03685916
0.01412182 0.03048978 0.04077064
-0.01672831 -0.00891796 0.01385732
-0.02444559 -0.02752406 0.08970986
0.03301524 0.01540042 0.05168589
0.00106737 0.00281375 -0.02780036
0.02057272 0.02594245 0.10403960
0.01897956 -0.02915610 0.08896779
0.01142085 -0.01652201 0.01806545
0.01143679 0.01570521 0.01725495
0.03314912 -0.02074061 0.07028626
-0.03291859 0.01241196 0.04552200
-0.02396614 -0.02496892 0.09100104
-0.01247565 0.03256067 0.08950120
-0.02549067 0.02470122 0.10030806
-0.00050758 -0.00397101 -0.03741233
0.00966656 -0.00746048 0.01056800
-0.03648563 0.01368457 0.07315154
0.01654128 0.00080027 -0.05096036
-0.03327983 -0.01294493 0.04048992
0.03915187 -0.00260856 0.06848470
0.01479032 -0.03429028 0.05992017
0.02036791 -0.02743334 0.03678988
0.02595708 0.02679414 0.05833189
-0.02555887 -0.02925950 0.05353275
-0.03357389 0.00192145 0.03521720
-0.01202645 0.01221384 0.01205371
-0.02613906 0.02203271 0.09479881
-0.02648058 0.02629075 0.06989383
-0.03248500 0.01434076 0.03991686
0.02489737 -0.03024324 0.06924015
0.03661706 0.00063534 0.09038296
-0.01603293 0.02970883 0.09817512
0.00723848 0.03674234 0.08482810
0.01152325 0.02176625 -0.05037690
-0.03406903 -0.01078880 0.09831619
-0.00165812 -0.01743140 0.01248837
-0.01310191 -0.00587355 -0.04880779
0.03382271 -0.00055812 0.09652548
-0.03386264 -0.01610448 0.06073612
-0.00948693 -0.03483801 0.04988325
-0.03659682 0.01392706 0.05555358
-0.01407321 0.03480806 0.06082892
-0.02970412 0.02281720 0.05925004
-0.03504778 0.01274893 0.08622028
0.00152625 -0.00248721 -0.02450338
0.03212019 0.01754146 0.05233284
-0.03403381 0.00234651 0.09575669
0.01874292 -0.03178957 0.05516532
0.02020733 0.02970966 0.08058348
-0.02414898 -0.02653201 0.09715624
-0.01861340 0.00913582 -0.05096036
0.02345299 0.02493099 0.09383432
0.02036413 -0.00925711 0.01768727
0.03238507 0.01838431 0.05777510
0.03176363 -0.01261627 0.04258949
0.03741676 0.00053204 0.06457199
-0.02007452 0.00121760 0.01791075
0.01803324 -0.01395140 0.01816999
0.00566548 -0.00487531 -0.05096036
-0.00552632 0.03693111 0.06876384
0.01777104 0.03241396 0.04478460
0.00526195 -0.03837996 0.05329085
-0.01016751 -0.02923434 0.03432919
0.03621897 -0.00726163 0.05521526
-0.03402842 0.01248018 0.07898004
0.00427075 0.03708092 0.08569595
-0.02613804 -0.02691689 0.06480367
-0.01386981 0.03701948 0.06605080
0.01673635 0.02459089 0.02776953
-0.02094465 -0.03345803 0.06546928
-0.00636697 -0.03059587 0.03054695
-0.01758552 0.02721593 0.03735901
-0.03688642 -0.00163642 0.05407459
-0.02980131 0.01065759 0.03107551
-0.02479004 0.00127457 0.02379514
-0.00195097 -0.03524479 0.04642991
0.00479033 0.02809779 0.02952484
-0.00577247 -0.03590373 0.09266065
0.02623693 -0.01908273 0.03293716
-0.03722977 -0.00440227 0.06749522
0.01265275 0.02563219 0.02592020
-0.02416918 0.02875013 0.06642008
-0.01775695 -0.02864859 0.09809928
0.00792815 -0.02572359 -0.04996197
-0.00004938 -0.01076444 -0.04674899
0.03543061 -0.00987329 0.07323341
0.03496551 -0.01336012 0.06244473
-0.00075376 0.03582247 0.08161495
0.01741182 -0.01140552 0.01892482
0.00320701 0.03310967 0.10151537
-0.02185270 0.02616779 0.09560514
0.01366856 0.03236208 0.10246160
-0.02752863 0.02821635 0.05868744
-0.03443248 0.01924437 0.05902572
-0.00913820 -0.03845073 0.06255476
-0.00228084 -0.03774361 0.08149016
-0.01123856 0.03524524 0.05454770
-0.03721782 -0.00763020 0.04858556
0.03842773 0.00307222 0.05214830
-0.00155167 -0.03741288 0.06428077
-0.01436064 0.03241915 0.04655628
0.00199346 -0.02195839 0.01726188
0.03309411 0.00731403 0.09582078
-0.01182663 0.01359980 -0.05001803
-0.00963740 0.03465766 0.09632037
0.03578453 0.00543325 0.04233281
0.01695470 -0.02780237 0.03316943
0.01324323 -0.03499710 0.08415730
0.03250146 0.01683771 0.07487933
0.03011998 -0.01493113 0.09788973
-0.03317775 0.00941569 0.09245462
-0.01950423 0.00545390 -0.05039693
-0.02623452 -0.00453873 0.02286881
0.01604545 0.00065183 -0.05096036
-0.03676285 0.01289558 0.05414582
0.03012851 -0.01772745 0.08755845
-0.03821150 -0.00538169 0.05162354
0.03180239 0.02339109 0.06233976
-0.03623785 0.00154791 0.07855502
-0.00355289 0.03315173 0.10162068
-0.03588247 0.01632472 0.05866029
-0.01042990 0.02470660 -0.05096036
-0.00131210 0.03413880 0.09457693
-0.01091111 -0.03790918 0.06114568
0.00976574 -0.02550578 -0.05018171
-0.03536388 -0.01782319 0.06237618
-0.01594657 0.01784853 -0.05096036
-0.02511783 0.01884684 0.03059551
0.00059286 -0.00620189 0.00626493
-0.02593236 -0.01221300 0.02596038
0.02033608 -0.02234447 0.03297006
-0.00695592 0.01114526 0.00863415
0.03728378 -0.00875446 0.05100108
0.02308432 -0.02944306 0.06422495
-0.02302948 0.00022170 -0.05096036
0.03074350 0.02033914 0.08864051
-0.00536266 -0.02462822 -0.05096036
0.00405896 0.03564242 0.09696256
-0.02036686 0.03384532 0.06752186
-0.02351183 0.02665380 0.03995390
-0.00341866 0.02192500 0.01728373
-0.03400584 -0.00709869 0.10403960
0.01198632 -0.02240410 0.02477414
-0.01057889 0.03591365 0.04629455
-0.00101458 0.03454475 0.04345158
0.01700745 -0.03107016 0.04691568
0.02497511 -0.00689735 -0.05012870
-0.03335846 0.01263547 0.04727571
-0.01376049 -0.03445463 0.08708800
0.00663648 0.02709177 0.02475354
-0.01942416 0.03192521 0.08561719
-0.03485378 -0.01257621 0.05522912
0.00079820 0.00325939 -0.03467273
0.01348984 0.02213571 0.02545675
-0.01626779 -0.01935532 -0.05026081
0.03599253 0.00085193 0.07929321
-0.03651076 0.00428299 0.09071126
0.01785444 -0.02843805 0.09835302
0.00212874 -0.03062642 0.03382675
-0.02348184 0.01435334 -0.05025429
0.00640796 -0.02443901 0.02459364
-0.02903522 -0.02541180 0.05180860
0.00793601 0.03814757 0.07289133
-0.01038049 0.01152252 -0.04925680
0.03219200 0.02283283 0.06271558
-0.02924103 0.02562034 0.05351775
0.00460333 -0.03195589 0.03743776
0.00393274 -0.00073479 -0.03757012
-0.00390619 -0.03005924 0.03304012
0.00910482 0.03231650 0.09907705
-0.00148387 0.03719956 0.04551246
-0.00303471 0.00051232 -0.00672422
-0.00404371 -0.02564054 0.02555198
-0.00364848 0.00991938 0.00920790
0.02240691 0.02942167 0.05525888
0.01792887 0.00347390 -0.05010341
0.03798006 0.01055962 0.06506650
-0.02042187 0.03107115 0.07120199
0.02278157 -0.00817702 0.01983485
0.01261739 -0.02025118 0.01941732
-0.03816371 -0.01042530 0.06465784
0.03466539 0.00741382 0.09936920
0.01921770 0.03044003 0.07988508
0.02648402 -0.02530126 0.05300222
-0.02634436 0.02472509 0.04945540
-0.00948988 -0.02178233 0.01920613
-0.03332989 -0.00598215 0.03572210
0.03190804 0.01647151 0.09595420
0.01824763 -0.02824479 0.09811537
-0.03362054 0.01454858 0.05185399
-0.01519198 0.02179994 -0.05004109
0.01278773 -0.03505280 0.05963481
-0.01826273 0.00109947 0.01316196
0.03450684 0.00669800 0.08609531
-0.02936947 0.02163183 0.07711103
-0.00204646 -0.03536564 0.03997587
0.03303970 -0.01330801 0.08224985
-0.02903347 0.02435366 0.08172526
0.00503446 -0.02532570 0.02197228
0.01421851 0.00992529 -0.04989789
0.01663568 0.00703644 0.01306309
0.00573751 -0.03122740 0.03154641
-0.03354290 -0.01363953 0.07893240
-0.01682657 -0.03146448 0.04752089
-0.03553600 0.01664034 0.07063565
0.00648209 0.01664084 0.01279578
0.00743463 0.00669038 0.00885535
0.03185706 0.00662586 0.03798319
-0.00375570 -0.01030119 0.00705709
0.01997608 -0.00947854 0.01738145
-0.00201274 -0.01383091 0.01204388
0.00069084 0.00293947 -0.02693884
0.01882342 0.01950366 -0.04997578
-0.03433869 -0.00838734 0.03953878
-0.02373637 0.03171288 0.06232096
-0.02646276 -0.02397623 0.04062009
0.00600823 -0.03478509 0.10082554
0.01904170 -0.01840250 0.02645856
-0.00702741 0.02256174 0.02216814
-0.03274217 0.02153461 0.05573310
-0.01387926 0.00334261 -0.04873937
0.01143584 0.03519721 0.08803598
0.02684930 0.02125549 0.09346011
-0.00342137 0.01225076 0.00833041
-0.01854822 0.02074905 0.02834282
0.01496939 -0.01842936 -0.05096036
0.02375716 -0.01263374 0.02711552
0.02866600 0.02206062 0.09413863
0.03321143 -0.01728666 0.06290004
-0.01363354 -0.03504358 0.08314635
0.03395858 -0.01560574 0.06541939
0.03345311 -0.01524313 0.05414710
-0.02030001 0.02946421 0.09838180
0.01812836 -0.03051179 0.09898871
0.03038950 -0.01705560 0.03859283
0.03522397 0.00560763 0.08214308
0.00236942 0.03733577 0.05941476
-0.01005869 -0.03334820 0.04455798
-0.02065429 0.02497229 0.03249582
0.00122370 0.00273221 -0.00868584
0.03362268 -0.00611610 0.09360334
0.02482947 0.03065980 0.06114727
0.03176997 -0.01241005 0.09397851
0.00472403 -0.03566360 0.09543646
-0.00376705 0.01883832 0.01694140
0.03556202 -0.00336608 0.09723268
-0.03198739 -0.02319471 0.06509864
0.00774353 -0.00870479 0.00763365
0.01806726 0.03160813 0.09253214
0.00982510 0.01151357 0.01038028
-0.01270337 -0.01542144 0.01493265
0.02508105 0.00748213 0.02591744
0.01292110 -0.00545780 0.00948025
-0.02811130 -0.02437109 0.04556367
0.03650365 0.00766527 0.08501455
0.03680310 -0.01191203 0.05336759
-0.01417063 0.00865666 0.01157780
0.02598811 -0.01624763 0.03381646
-0.02666833 0.00552915 0.02367373
0.01242373 -0.00290055 -0.04806031
-0.00836299 -0.03647258 0.06059881
-0.01644103 0.03323800 0.08808877
0.03304202 0.01026446 0.09055540
-0.00182012 -0.03398609 0.09495682
0.00415254 -0.00355801 0.00579525
-0.03607017 0.01058664 0.06496794
-0.01025787 -0.03637795 0.04816506
-0.00673334 0.02809479 0.03020300
0.01318798 -0.00376409 -0.04855704
-0.00504756 -0.03779717 0.07889000
-0.02838444 0.02316341 0.05178051
0.03713959 -0.00459352 0.06332190
0.00279866 -0.01962888 0.01774214
-0.03319172 0.01958199 0.07669510
-0.00178306 -0.03117440 0.03047778
0.01171842 0.00857111 -0.05096036
0.02990113 -0.02054987 0.09268185
0.02920189 0.02347671 0.06441090
0.03305117 -0.01762404 0.06293596
-0.00163410 0.02635156 0.02613363
-0.03648003 -0.00827231 0.05867791
0.00576894 -0.03835872 0.05374431
-0.00239844 -0.03496535 0.10333411
0.00909219 -0.00706104 -0.04729189
-0.02528226 -0.00246379 0.02455218
0.01215995 -0.01173116 -0.05096036
-0.01637232 -0.03457471 0.07821164
-0.00138587 0.01542391 -0.04926207
-0.02259233 0.03011601 0.04693546
-0.00548529 0.03492449 0.08546203
-0.02792404 -0.00535459 0.02552186
-0.03356770 0.01120598 0.10113793
0.00886151 -0.02117978 0.01834876
0.00320441 -0.02102224 -0.05048991
-0.03515361 -0.01215149 0.05631526
-0.03598211 0.01036577 0.08542326
-0.02714372 -0.02276270 0.04653549
0.03634776 -0.00631016 0.07233863
-0.01454370 -0.00736867 0.01401263
-0.01117892 -0.00636317 -0.04805308
-0.03551127 -0.01741038 0.06455245
0.00215122 -0.03297684 0.10403960
-0.02633223 0.02650617 0.06929401
0.01817903 0.03220905 0.08809337
-0.00299501 0.03935899 0.06022132
0.01064258 -0.03784953 0.05957958
-0.02539404 0.01516412 0.03143737
0.03900594 0.00394073 0.05714983
-0.00357229 0.00051412 -0.03561941
-0.01278751 -0.03514093 0.06013076
-0.00277490 -0.03899764 0.07091616
0.00599327 -0.03653119 0.05585164
-0.02200226 -0.01892846 0.02657116
0.00517529 -0.03621415 0.09073385
0.01953597 -0.01492653 0.02370907
0.02354320 0.00192800 0.02236892
0.00525635 -0.01573361 -0.04969532
-0.00784239 -0.00252806 0.00510891
0.02855607 0.02631990 0.05402451
-0.00385564 0.00159777 0.00214575
0.03693283 0.00426047 0.08615482
-0.00965170 -0.02570136 0.02789843
-0.00906841 0.02698808 0.02939562
-0.02000492 0.03161814 0.05863577
-0.03120807 -0.00539622 0.03573670
0.00353204 -0.03373801 0.03618535
0.02463440 -0.03052917 0.05833047
0.03566991 -0.01059732 0.08571436
0.02329107 -0.00163381 0.01881747
-0.02441187 0.00347490 0.02019290
-0.01281399 -0.03372087 0.07931003
-0.01323306 -0.03362274 0.09473045
-0.03688843 -0.00181942 0.05416028
-0.02912905 -0.02154565 0.09417592
-0.00408731 0.03682414 0.05507660
0.02244106 0.02706599 0.10203287
-0.01206993 0.03523077 0.07003946
-0.03225244 -0.01613790 0.04928470
0.02102562 -0.02657244 0.09576292
0.00374640 -0.03719946 0.06001700
0.01664657 -0.02971026 0.03650094
0.02345950 0.02936865 0.08309879
0.03446972 0.00783198 0.03991825
0.02257132 -0.02391921 0.03901958
0.00769886 0.03556625 0.09321194
0.00431569 -0.02681690 0.02750313
-0.01929249 -0.00752635 0.01862740
0.03581525 0.01213858 0.08088938
-0.03010541 0.02180526 0.08715034
0.01591832 -0.02482824 0.03157749
-0.00727925 -0.01113016 0.00881143
0.02519906 0.02865976 0.07882617
-0.00870421 0.02838083 0.03162814
0.02541744 0.01274901 0.02575112
-0.03307322 0.01470182 0.07914592
0.02415472 -0.02586224 0.10027217
-0.02707892 -0.01809667 0.03289125
